# .PCD v0.7 - Point Cloud Data file format
VERSION 0.7
FIELDS x y z
SIZE 4 4 4
TYPE F F F
COUNT 1 1 1
WIDTH 1628
HEIGHT 1
VIEWPOINT 0 0 0 1 0 0 0
POINTS 1628
DATA ascii
0.0189 0.82990003 -0.097999997
0.0148 0.82230002 -0.089599997
0.0114 0.81330001 -0.081299998
0.0088 0.80269998 -0.073200002
0.0068999999 0.79040003 -0.065200001
0.0057999999 0.77640003 -0.057399999
0.0054000001 0.76050001 -0.049800001
0.0059000002 0.74250001 -0.0425
0.0071 0.72250003 -0.035300002
0.0091000004 0.70020002 -0.0284
0.0057999999 0.72229999 -0.016000001
0.0034 0.74220002 -0.0038999999
0.0017 0.75989997 0.0080000004
0.00079999998 0.77569997 0.0196
0.00069999998 0.7895 0.031099999
0.0013 0.80159998 0.042399999
0.0027000001 0.81199998 0.053599998
0.0048000002 0.82080001 0.064499997
0.0077 0.8283 0.075400002
0.0113 0.8344 0.086099997
0.0156 0.83929998 0.096799999
0.0207 0.84310001 0.1073
0.0265 0.84600002 0.1178
0.032900002 0.84799999 0.12819999
0.040100001 0.84930003 0.13860001
0.048 0.85000002 0.1489
0.056499999 0.85009998 0.1592
0.065700002 0.84990001 0.16949999
0.075599998 0.8495 0.1798
0.086199999 0.8488 0.1902
0.1185 0.82270002 -0.215
0.1055 0.82319999 -0.2051
0.093199998 0.82370001 -0.1952
0.081600003 0.82380003 -0.18529999
0.070799999 0.82349998 -0.1754
0.060699999 0.82260001 -0.1656
0.051399998 0.8211 -0.1557
0.042800002 0.81879997 -0.1459
0.035100002 0.81559998 -0.1362
0.028100001 0.81129998 -0.1266
0.0219 0.80580002 -0.117
0.0165 0.79900002 -0.1076
0.012 0.79079998 -0.098300003
0.0082 0.78100002 -0.089199997
0.0054000001 0.76950002 -0.080200002
0.0033 0.75620002 -0.071400002
0.0022 0.74089998 -0.062799998
0.0019 0.72350001 -0.054400001
0.0024999999 0.704 -0.0462
0.0040000002 0.6821 -0.0383
0.0063999998 0.65780002 -0.0306
0.0026 0.6821 -0.017000001
-0.00019999999 0.704 -0.0035999999
-0.0022 0.72350001 0.0094999997
-0.0033 0.74080002 0.022399999
-0.0035000001 0.7561 0.035100002
-0.0027999999 0.76929998 0.047600001
-0.0013 0.78079998 0.059900001
0.001 0.7906 0.072099999
0.0041999999 0.79879999 0.084100001
0.0082 0.80559999 0.095899999
0.0131 0.81099999 0.1077
0.0187 0.81529999 0.1193
0.0251 0.81849998 0.1309
0.032299999 0.82080001 0.1424
0.0403 0.82230002 0.1539
0.048999999 0.82309997 0.1653
0.058400001 0.82340002 0.1767
0.068700001 0.8233 0.1881
0.079599999 0.82279998 0.19949999
0.091200002 0.8222 0.21089999
0.1247 0.7924 -0.2317
0.1106 0.79320002 -0.221
0.0973 0.79369998 -0.2103
0.084799998 0.79390001 -0.1996
0.073100001 0.79369998 -0.18889999
0.062100001 0.79290003 -0.17820001
0.052000001 0.79140002 -0.16760001
0.0427 0.78909999 -0.15700001
0.034299999 0.78570002 -0.14650001
0.026699999 0.78119999 -0.13600001
0.02 0.77539998 -0.1257
0.0141 0.7683 -0.1155
0.0092000002 0.75959998 -0.1055
0.0052 0.74919999 -0.095600002
0.0020999999 0.73699999 -0.0858
-0 0.72280002 -0.076300003
-0.0012000001 0.70660001 -0.067000002
-0.0014 0.68809998 -0.0579
-0.00060000003 0.66729999 -0.0491
0.0012000001 0.64389998 -0.0405
0.0038999999 0.61799997 -0.032200001
-0.00030000001 0.64410001 -0.0174
-0.0035999999 0.66759998 -0.003
-0.0057999999 0.6886 0.0112
-0.0071 0.70730001 0.0252
-0.0074 0.72369999 0.038899999
-0.0066999998 0.73799998 0.0524
-0.0051000002 0.75040001 0.065700002
-0.0024999999 0.76099998 0.0788
0.001 0.76980001 0.091799997
0.0052999998 0.77719998 0.1047
0.0106 0.78310001 0.1174
0.0167 0.78780001 0.13
0.023700001 0.7913 0.1425
0.031500001 0.79390001 0.155
0.040199999 0.7956 0.1674
0.049600001 0.79650003 0.1797
0.059900001 0.79689997 0.192
0.070900001 0.79689997 0.2044
0.082800001 0.79650003 0.2167
0.095399998 0.79589999 0.2291
0.1296 0.76190001 -0.2454
0.1147 0.76270002 -0.2341
0.1005 0.76340002 -0.2227
0.087200001 0.76380002 -0.2113
0.074699998 0.76370001 -0.1999
0.063000001 0.76300001 -0.1886
0.052200001 0.7615 -0.1772
0.042300001 0.75910002 -0.16599999
0.033300001 0.75569999 -0.1548
0.0252 0.7511 -0.1437
0.017999999 0.74519998 -0.1327
0.0118 0.73769999 -0.1219
0.0065000001 0.72869998 -0.1112
0.0023000001 0.71789998 -0.1006
-0.001 0.70520002 -0.090300001
-0.0031999999 0.6904 -0.080200002
-0.0043000001 0.67339998 -0.070200004
-0.0044999998 0.6541 -0.0605
-0.0035000001 0.63230002 -0.051100001
-0.0014 0.60790002 -0.041999999
0.0018 0.58069998 -0.033100002
-0.0029 0.60829997 -0.0175
-0.0066 0.63309997 -0.0020999999
-0.0091000004 0.65530002 0.013
-0.0105 0.67500001 0.027799999
-0.0109 0.69239998 0.042399999
-0.0102 0.7076 0.0568
-0.0086000003 0.72070003 0.071000002
-0.0057999999 0.73189998 0.084899999
-0.0022 0.7414 0.098800004
0.0024999999 0.74919999 0.1124
0.0081000002 0.75559998 0.126
0.0147 0.76059997 0.13940001
0.0222 0.76440001 0.15270001
0.0305 0.76719999 0.16599999
0.039799999 0.76910001 0.17910001
0.049899999 0.77020001 0.19230001
0.060899999 0.77069998 0.2054
0.072700001 0.77069998 0.2185
0.085299999 0.77039999 0.2317
0.0986 0.76999998 0.2448
0.13339999 0.73110002 -0.25650001
0.1177 0.73210001 -0.2446
0.1029 0.73290002 -0.2326
0.0889 0.7335 -0.22059999
0.0757 0.7335 -0.2087
0.063500002 0.73290002 -0.19679999
0.052099999 0.73150003 -0.1849
0.0416 0.72909999 -0.17299999
0.032099999 0.72570002 -0.1613
0.023600001 0.72109997 -0.1497
0.016000001 0.71499997 -0.1381
0.0094999997 0.70749998 -0.1267
0.0040000002 0.69819999 -0.1155
-0.00050000002 0.68720001 -0.1044
-0.0038999999 0.67409998 -0.093599997
-0.0060999999 0.65890002 -0.082900003
-0.0073000002 0.64139998 -0.072499998
-0.0073000002 0.62150002 -0.0623
-0.0060999999 0.59909999 -0.0524
-0.0037 0.57389998 -0.042800002
-9.9999997e-05 0.54579997 -0.033500001
-0.0052999998 0.57450002 -0.017000001
-0.0093 0.60039997 -0.00089999998
-0.0121 0.62349999 0.0149
-0.0137 0.64410001 0.0305
-0.0142 0.66219997 0.0458
-0.0136 0.67809999 0.060899999
-0.0118 0.6918 0.075800002
-0.0089999996 0.70349997 0.090400003
-0.0051000002 0.71340001 0.1049
-9.9999997e-05 0.72170001 0.1193
0.0057999999 0.72839999 0.13349999
0.0127 0.73369998 0.1476
0.0206 0.73769999 0.16159999
0.0295 0.74070001 0.17550001
0.0392 0.7428 0.1894
0.049899999 0.74409997 0.2032
0.0614 0.74470001 0.21699999
0.073799998 0.74489999 0.2307
0.087099999 0.74470001 0.2445
0.1011 0.74430001 0.25839999
0.13609999 0.7001 -0.2649
0.1199 0.70130002 -0.25260001
0.1045 0.70230001 -0.2401
0.089900002 0.70300001 -0.2277
0.076200001 0.70319998 -0.21529999
0.0634 0.70270002 -0.20290001
0.051600002 0.70139998 -0.19059999
0.0407 0.69919997 -0.17829999
0.0308 0.69580001 -0.1661
0.0218 0.69120002 -0.154
0.014 0.68519998 -0.142
0.0071999999 0.67760003 -0.1302
0.0014 0.66820002 -0.1185
-0.0031999999 0.65700001 -0.107
-0.0066 0.64380002 -0.095700003
-0.0088999998 0.62840003 -0.084700003
-0.0099999998 0.61059999 -0.073799998
-0.0098000001 0.59039998 -0.063299999
-0.0083999997 0.5675 -0.052999999
-0.0057000001 0.54180002 -0.043000001
-0.0017 0.51319999 -0.033300001
-0.0074 0.54280001 -0.0162
-0.0117 0.56940001 0.00050000002
-0.0148 0.59320003 0.017000001
-0.0166 0.61440003 0.033100002
-0.017200001 0.63309997 0.048999999
-0.0166 0.6494 0.0647
-0.0148 0.66360003 0.0801
-0.0119 0.67580003 0.095399998
-0.0077999998 0.68599999 0.1104
-0.0027000001 0.69459999 0.12530001
0.0035000001 0.7015 0.1401
0.0108 0.70709997 0.1548
0.018999999 0.71139997 0.1693
0.0283 0.71460003 0.1838
0.0385 0.71679997 0.1981
0.049600001 0.71820003 0.21250001
0.0616 0.71899998 0.22679999
0.074500002 0.71929997 0.2411
0.088200003 0.71920002 0.25549999
0.1028 0.71890002 0.26980001
0.13779999 0.6692 -0.271
0.1211 0.6706 -0.25819999
0.1053 0.6717 -0.2455
0.090300001 0.67259997 -0.23270001
0.076200001 0.67290002 -0.2199
0.063000001 0.67259997 -0.20720001
0.050799999 0.67140001 -0.1944
0.039500002 0.66930002 -0.18179999
0.029300001 0.66600001 -0.1693
0.020099999 0.66149998 -0.1568
0.0119 0.65560001 -0.1445
0.0049000001 0.648 -0.1323
-0.001 0.63870001 -0.1203
-0.0057000001 0.6275 -0.1085
-0.0092000002 0.61430001 -0.096900001
-0.0115 0.5988 -0.085500002
-0.0125 0.58099997 -0.074299999
-0.0121 0.56059998 -0.0634
-0.0105 0.53759998 -0.0528
-0.0074999998 0.51169997 -0.0425
-0.0031000001 0.48289999 -0.032499999
-0.0092000002 0.51289999 -0.015
-0.0139 0.54009998 0.0022
-0.017200001 0.5643 0.019099999
-0.019300001 0.58590001 0.035799999
-0.02 0.60500002 0.052099999
-0.019400001 0.62169999 0.0682
-0.0176 0.63620001 0.084100001
-0.0146 0.64859998 0.099799998
-0.0104 0.65920001 0.1153
-0.0051000002 0.66790003 0.13070001
0.0014 0.67510003 0.1459
0.0088999998 0.68089998 0.1609
0.0174 0.68540001 0.1759
0.027000001 0.68870002 0.1908
0.037500001 0.6911 0.20559999
0.048999999 0.69270003 0.22040001
0.0614 0.6936 0.2351
0.074699998 0.69400001 0.2498
0.088799998 0.69410002 0.26460001
0.1038 0.69389999 0.27939999
0.13860001 0.6383 -0.2748
0.1216 0.63990003 -0.26179999
0.1055 0.64120001 -0.24869999
0.090099998 0.64219999 -0.2357
0.0757 0.64270002 -0.2226
0.062199999 0.64249998 -0.2096
0.049699999 0.64160001 -0.19660001
0.038199998 0.63959998 -0.1837
0.0277 0.6365 -0.1709
0.018200001 0.63209999 -0.1582
0.0098999999 0.62629998 -0.14569999
0.0027000001 0.6189 -0.1332
-0.0033 0.60970002 -0.121
-0.0081000002 0.59869999 -0.1089
-0.0116 0.5855 -0.097000003
-0.0138 0.57020003 -0.0854
-0.0147 0.55239999 -0.074000001
-0.0143 0.53219998 -0.062799998
-0.0124 0.50919998 -0.052000001
-0.0091000004 0.48339999 -0.0414
-0.0043000001 0.45460001 -0.031199999
-0.0108 0.48500001 -0.0133
-0.015799999 0.51230001 0.0041999999
-0.019400001 0.53680003 0.021500001
-0.021600001 0.55860001 0.038400002
-0.022399999 0.57789999 0.055100001
-0.0219 0.5948 0.071599998
-0.020099999 0.60949999 0.087800004
-0.017100001 0.6221 0.1038
-0.0128 0.63279998 0.1197
-0.0073000002 0.64179999 0.1353
-0.00069999998 0.64920002 0.15090001
0.0070000002 0.65509999 0.1662
0.015799999 0.65969998 0.1815
0.025599999 0.66320002 0.19670001
0.036400001 0.66579998 0.2119
0.0482 0.66750002 0.2269
0.060899999 0.66850001 0.242
0.074500002 0.66909999 0.257
0.0889 0.66930002 0.2721
0.1041 0.66930002 0.2872
0.13850001 0.60759997 -0.27649999
0.1214 0.60930002 -0.2633
0.105 0.61089998 -0.25009999
0.089500003 0.61199999 -0.2368
0.0748 0.61269999 -0.2236
0.061099999 0.61269999 -0.2104
0.0484 0.61189997 -0.1973
0.036600001 0.61009997 -0.1842
0.025900001 0.60729998 -0.17120001
0.0163 0.6031 -0.1583
0.0078999996 0.59750003 -0.14560001
0.00060000003 0.59030002 -0.133
-0.0055 0.58130002 -0.1205
-0.0103 0.57050002 -0.1083
-0.0138 0.55760002 -0.096199997
-0.016000001 0.54250002 -0.084399998
-0.016799999 0.52499998 -0.072899997
-0.0162 0.505 -0.0616
-0.0141 0.4824 -0.050500002
-0.0104 0.4569 -0.039799999
-0.0052999998 0.42840001 -0.0294
-0.0122 0.4587 -0.0113
-0.0175 0.48609999 0.0065000001
-0.021400001 0.51059997 0.0239
-0.023700001 0.53250003 0.041099999
-0.024700001 0.55180001 0.0581
-0.0242 0.56879997 0.074699998
-0.022500001 0.58359998 0.091200002
-0.019400001 0.59630001 0.1074
-0.015 0.60710001 0.1235
-0.0094999997 0.61610001 0.13940001
-0.0027000001 0.62360001 0.1551
0.0051000002 0.62959999 0.1707
0.0141 0.63440001 0.18629999
0.0241 0.63800001 0.2017
0.035100002 0.64069998 0.21699999
0.0471 0.6426 0.2323
0.059999999 0.64380002 0.2476
0.073799998 0.64450002 0.26280001
0.088500001 0.64480001 0.27810001
0.1039 0.64499998 0.29339999
0.13770001 0.5772 -0.27630001
0.1205 0.57910001 -0.26300001
0.104 0.5808 -0.24969999
0.088299997 0.58209997 -0.23630001
0.073600002 0.583 -0.223
0.059700001 0.58319998 -0.2097
0.046799999 0.5826 -0.1964
0.034899998 0.58099997 -0.1833
0.0241 0.57840002 -0.17020001
0.0144 0.57440001 -0.15719999
0.0057999999 0.56910002 -0.1443
-0.0015 0.56220001 -0.13160001
-0.0076000001 0.5535 -0.1191
-0.0125 0.54299998 -0.1067
-0.015900001 0.53049999 -0.094599999
-0.017999999 0.5158 -0.082699999
-0.0187 0.49869999 -0.071000002
-0.017899999 0.47920001 -0.059599999
-0.0155 0.45699999 -0.048500001
-0.0116 0.43200001 -0.037700001
-0.0060000001 0.4041 -0.0272
-0.0133 0.43419999 -0.0089999996
-0.018999999 0.4614 0.0088999998
-0.0231 0.4858 0.0266
-0.025599999 0.50749999 0.043900002
-0.026699999 0.52670002 0.060899999
-0.0263 0.54360002 0.077699997
-0.024599999 0.55839998 0.094300002
-0.021500001 0.5711 0.1107
-0.017100001 0.5819 0.1269
-0.0115 0.59100002 0.1429
-0.0046000001 0.59850001 0.15880001
0.0033 0.60460001 0.1745
0.0124 0.60949999 0.1902
0.022600001 0.61320001 0.2057
0.0337 0.616 0.2212
0.045899998 0.61799997 0.2366
0.058899999 0.61930001 0.252
0.072800003 0.62019998 0.2674
0.0876 0.6207 0.28279999
0.1031 0.62099999 0.29820001
0.1362 0.54710001 -0.27430001
0.119 0.5492 -0.26100001
0.1025 0.551 -0.2476
0.086800002 0.55260003 -0.2342
0.071900003 0.55360001 -0.2209
0.057999998 0.55400002 -0.2075
0.0451 0.55360001 -0.19419999
0.033100002 0.55229998 -0.18099999
0.0222 0.5499 -0.1679
0.0125 0.54619998 -0.1549
0.0038999999 0.54119998 -0.142
-0.0035000001 0.53460002 -0.1293
-0.0096000005 0.52640003 -0.1167
-0.0144 0.51630002 -0.1043
-0.017899999 0.50419998 -0.092200004
-0.0199 0.49000001 -0.080200002
-0.020400001 0.47350001 -0.068499997
-0.019400001 0.45460001 -0.057100002
-0.016799999 0.43309999 -0.045899998
-0.0125 0.40880001 -0.035
-0.0066 0.38170001 -0.024499999
-0.0143 0.4113 -0.0062000002
-0.020199999 0.43810001 0.0117
-0.024499999 0.4621 0.029300001
-0.0272 0.48359999 0.046700001
-0.0284 0.50260001 0.0638
-0.028200001 0.51929998 0.080600001
-0.0265 0.53390002 0.097199999
-0.023399999 0.54650003 0.1137
-0.018999999 0.55729997 0.12989999
-0.0133 0.56629997 0.146
-0.0065000001 0.57389998 0.1619
0.0016 0.57999998 0.1777
0.0108 0.58490002 0.19329999
0.021 0.58880001 0.2089
0.032200001 0.59170002 0.2244
0.044399999 0.59380001 0.23989999
0.057599999 0.59530002 0.25529999
0.071500003 0.59630001 0.27079999
0.086300001 0.59689999 0.28619999
0.1018 0.59740001 0.30160001
0.13410001 0.51749998 -0.27070001
0.1169 0.51969999 -0.25740001
0.1005 0.52170002 -0.244
0.084799998 0.52340001 -0.2307
0.07 0.52460003 -0.2173
0.0561 0.52520001 -0.204
0.043099999 0.52509999 -0.1908
0.031199999 0.52399999 -0.1776
0.020300001 0.5219 -0.1645
0.0105 0.51859999 -0.1516
0.0019 0.51389998 -0.13869999
-0.0055 0.50770003 -0.126
-0.0116 0.49990001 -0.1135
-0.0163 0.4903 -0.1011
-0.0196 0.4788 -0.089000002
-0.021500001 0.46520001 -0.077
-0.0219 0.44940001 -0.065300003
-0.0207 0.4312 -0.0539
-0.0178 0.41049999 -0.042800002
-0.0133 0.38710001 -0.0319
-0.0071 0.36090001 -0.021400001
-0.015 0.38999999 -0.0031999999
-0.021199999 0.41620001 0.0147
-0.025800001 0.43970001 0.032299999
-0.0287 0.46070001 0.049600001
-0.029999999 0.47940001 0.066600002
-0.0298 0.49579999 0.083400004
-0.028200001 0.51020002 0.1
-0.0251 0.5226 0.1164
-0.0208 0.53320003 0.13259999
-0.0151 0.54220003 0.1486
-0.0082 0.54970002 0.1645
-9.9999997e-05 0.55589998 0.1802
0.0091000004 0.56080002 0.19589999
0.019400001 0.56470001 0.2114
0.0306 0.56770003 0.2269
0.042800002 0.56989998 0.2423
0.056000002 0.57160002 0.2577
0.069899999 0.57270002 0.27309999
0.084600002 0.57349998 0.28850001
0.1001 0.57410002 0.3039
0.1314 0.4883 -0.26550001
0.1144 0.49070001 -0.25229999
0.098099999 0.49290001 -0.23909999
0.082599998 0.49470001 -0.22579999
0.0678 0.49610001 -0.21259999
0.054000001 0.49700001 -0.19939999
0.041099999 0.49700001 -0.18619999
0.029200001 0.4962 -0.17309999
0.018300001 0.49439999 -0.1601
0.0086000003 0.4914 -0.1472
0 0.48719999 -0.1345
-0.0073000002 0.48140001 -0.1219
-0.0133 0.47409999 -0.1094
-0.017999999 0.46509999 -0.097099997
-0.021199999 0.4542 -0.085100003
-0.023 0.4413 -0.073200002
-0.0232 0.42629999 -0.0616
-0.0218 0.40900001 -0.0502
-0.0187 0.3892 -0.0392
-0.0139 0.3669 -0.0284
-0.0074 0.34189999 -0.017899999
-0.0156 0.37 0.00019999999
-0.0221 0.3955 0.017899999
-0.026799999 0.41839999 0.035399999
-0.029899999 0.43889999 0.052499998
-0.031300001 0.4571 0.069399998
-0.031300001 0.47310001 0.086099997
-0.0297 0.48710001 0.1026
-0.026699999 0.4993 0.1188
-0.022399999 0.5097 0.1349
-0.0167 0.51859999 0.1508
-0.0098000001 0.52600002 0.1666
-0.0017 0.53219998 0.1823
0.0074 0.53710002 0.1978
0.0177 0.54110003 0.2133
0.028899999 0.54409999 0.2286
0.041099999 0.54650003 0.244
0.054200001 0.54820001 0.25920001
0.068000004 0.54949999 0.27450001
0.082599998 0.55049998 0.28979999
0.097900003 0.55129999 0.30509999
0.12809999 0.4598 -0.259
0.1114 0.4623 -0.24590001
0.095299996 0.4646 -0.23280001
0.079999998 0.4666 -0.21969999
0.065399997 0.4682 -0.2066
0.0517 0.46919999 -0.1936
0.038899999 0.46950001 -0.1806
0.027100001 0.46900001 -0.16760001
0.0163 0.4675 -0.1548
0.0066 0.46489999 -0.142
-0.0018 0.46110001 -0.1294
-0.0091000004 0.4558 -0.1169
-0.015 0.44909999 -0.1046
-0.0196 0.44069999 -0.092500001
-0.022700001 0.4305 -0.080499999
-0.0243 0.41839999 -0.068800002
-0.0244 0.40419999 -0.057300001
-0.0228 0.38789999 -0.046100002
-0.0195 0.36919999 -0.035100002
-0.0144 0.34810001 -0.0244
-0.0074999998 0.32429999 -0.014
-0.016000001 0.3515 0.0038000001
-0.022700001 0.3761 0.021299999
-0.0277 0.39820001 0.038600001
-0.0309 0.41800001 0.055599999
-0.032499999 0.43560001 0.072300002
-0.032499999 0.45120001 0.088799998
-0.030999999 0.4648 0.1051
-0.028100001 0.47670001 0.1211
-0.023800001 0.4869 0.13699999
-0.018200001 0.49559999 0.15279999
-0.0114 0.5029 0.1684
-0.0033 0.50889999 0.1839
0.0057999999 0.51389998 0.1992
0.016000001 0.51779997 0.2145
0.0272 0.52100003 0.2297
0.0392 0.52340001 0.2449
0.052200001 0.52530003 0.25999999
0.065899998 0.52670002 0.27509999
0.080300003 0.52780002 0.2902
0.095399998 0.52880001 0.30540001
0.1245 0.43180001 -0.25130001
0.1081 0.43450001 -0.2384
0.092299998 0.43689999 -0.2255
0.077200003 0.4391 -0.21250001
0.062799998 0.4409 -0.1996
0.0493 0.44209999 -0.1868
0.036600001 0.4427 -0.17399999
0.024900001 0.44240001 -0.1612
0.0143 0.4413 -0.1486
0.0046999999 0.43900001 -0.13600001
-0.0035999999 0.43560001 -0.1236
-0.0108 0.43090001 -0.1113
-0.0166 0.42480001 -0.099200003
-0.021 0.417 -0.087200001
-0.024 0.40759999 -0.075400002
-0.0255 0.3964 -0.063900001
-0.0253 0.38319999 -0.052499998
-0.023600001 0.36790001 -0.0414
-0.020099999 0.3504 -0.0306
-0.0147 0.33059999 -0.02
-0.0076000001 0.30829999 -0.0098000001
-0.0163 0.33430001 0.0077999998
-0.0232 0.35789999 0.025
-0.0283 0.37909999 0.041999999
-0.0317 0.39809999 0.058699999
-0.033399999 0.41510001 0.075199999
-0.033599999 0.43009999 0.091399997
-0.032200001 0.44319999 0.1074
-0.029300001 0.45469999 0.1233
-0.0251 0.4646 0.1389
-0.0196 0.47299999 0.15449999
-0.0128 0.48019999 0.1698
-0.0049000001 0.48609999 0.1851
0.0041999999 0.491 0.20020001
0.0143 0.495 0.21529999
0.0253 0.4982 0.23029999
0.037300002 0.5007 0.24519999
0.050000001 0.50269997 0.26010001
0.063600004 0.50419998 0.27500001
0.077799998 0.50550002 0.2899
0.092600003 0.50660002 0.3048
0.1204 0.40459999 -0.24240001
0.1044 0.40740001 -0.2297
0.0889 0.41 -0.21699999
0.074100003 0.41229999 -0.2043
0.059999999 0.41420001 -0.1917
0.046700001 0.41569999 -0.17910001
0.034200002 0.4165 -0.1665
0.022700001 0.4165 -0.154
0.0123 0.41569999 -0.1416
0.0029 0.41389999 -0.1292
-0.0054000001 0.4109 -0.117
-0.0124 0.4068 -0.105
-0.017999999 0.4012 -0.093099996
-0.022299999 0.3942 -0.081299998
-0.0252 0.3856 -0.069799997
-0.0265 0.37529999 -0.058400001
-0.0262 0.36309999 -0.0473
-0.0242 0.34900001 -0.036400001
-0.020500001 0.33270001 -0.025699999
-0.0149 0.3143 -0.0153
-0.0074999998 0.29350001 -0.0052999998
-0.0165 0.31830001 0.0119
-0.023600001 0.34079999 0.028899999
-0.028899999 0.361 0.045499999
-0.032400001 0.37920001 0.061900001
-0.034200002 0.3953 0.078100003
-0.034499999 0.40970001 0.093999997
-0.033199999 0.42230001 0.1097
-0.030400001 0.43329999 0.12530001
-0.0263 0.4429 0.1407
-0.0208 0.45109999 0.1559
-0.0142 0.458 0.171
-0.0063 0.46380001 0.186
0.0026 0.46869999 0.2008
0.0126 0.47260001 0.2156
0.023499999 0.47589999 0.23029999
0.0352 0.47839999 0.245
0.047800001 0.48050001 0.25960001
0.061000001 0.4822 0.27419999
0.075000003 0.48359999 0.28889999
0.089500003 0.4849 0.3035
0.1161 0.37810001 -0.2325
0.1004 0.38100001 -0.2201
0.085299999 0.38370001 -0.2077
0.070799999 0.38620001 -0.1953
0.057 0.3883 -0.1829
0.044 0.3899 -0.1705
0.031800002 0.39089999 -0.1582
0.020500001 0.39129999 -0.146
0.0103 0.3908 -0.1339
0.001 0.38940001 -0.1218
-0.0070000002 0.38690001 -0.1099
-0.0138 0.38330001 -0.098099999
-0.019400001 0.3784 -0.086400002
-0.023499999 0.37220001 -0.074900001
-0.0262 0.3644 -0.063600004
-0.0273 0.35510001 -0.052499998
-0.026900001 0.34400001 -0.0416
-0.024700001 0.331 -0.0309
-0.0208 0.31619999 -0.020500001
-0.015 0.2992 -0.0103
-0.0073000002 0.28009999 -0.00039999999
-0.0165 0.3035 0.0164
-0.023800001 0.3247 0.032900002
-0.029200001 0.34380001 0.049199998
-0.032900002 0.361 0.065200001
-0.0348 0.37639999 0.081
-0.0352 0.38999999 0.096600004
-0.034000002 0.4021 0.112
-0.031300001 0.41260001 0.12720001
-0.0273 0.42179999 0.14219999
-0.022 0.4296 0.15710001
-0.0154 0.4364 0.1719
-0.0077 0.442 0.1866
0.0011 0.44679999 0.20110001
0.0108 0.45070001 0.2156
0.021500001 0.454 0.23
0.033100002 0.45660001 0.24429999
0.045400001 0.45879999 0.2586
0.058400001 0.46059999 0.27289999
0.071999997 0.4621 0.2872
0.086099997 0.46349999 0.30149999
0.1114 0.35249999 -0.2217
0.096199997 0.3554 -0.2096
0.081500001 0.3583 -0.19750001
0.067400001 0.3608 -0.18539999
0.054000001 0.36309999 -0.1733
0.041200001 0.36489999 -0.1613
0.029300001 0.3662 -0.14929999
0.018300001 0.36680001 -0.1374
0.0082999999 0.36669999 -0.12549999
-0.00069999998 0.36570001 -0.1138
-0.0086000003 0.3637 -0.1021
-0.0152 0.36070001 -0.090599999
-0.0206 0.3565 -0.079300001
-0.024599999 0.35100001 -0.068099998
-0.027100001 0.3441 -0.057
-0.028100001 0.33570001 -0.0462
-0.0274 0.3258 -0.035500001
-0.0251 0.3141 -0.0251
-0.021 0.30059999 -0.0149
-0.015 0.2852 -0.0049999999
-0.0071 0.2678 0.0046999999
-0.0164 0.2897 0.021
-0.0239 0.3096 0.037099998
-0.0294 0.3276 0.052999999
-0.033199999 0.34380001 0.068599999
-0.035300002 0.35820001 0.083999999
-0.035700001 0.37110001 0.099200003
-0.034699999 0.38249999 0.1142
-0.032099999 0.39250001 0.12899999
-0.028200001 0.4012 0.1437
-0.023 0.40880001 0.1582
-0.0166 0.4152 0.1726
-0.0091000004 0.42070001 0.1869
-0.00050000002 0.42539999 0.20110001
0.0091000004 0.42930001 0.21520001
0.0196 0.4325 0.22920001
0.0309 0.43520001 0.2432
0.0429 0.43740001 0.2572
0.055500001 0.4393 0.27110001
0.068800002 0.44100001 0.28510001
0.082500003 0.44260001 0.29899999
0.1065 0.32769999 -0.2101
0.091799997 0.33070001 -0.1983
0.077600002 0.33360001 -0.1865
0.063900001 0.33629999 -0.17479999
0.050799999 0.3387 -0.1631
0.038400002 0.3407 -0.1514
0.026799999 0.34220001 -0.1397
0.016100001 0.34310001 -0.12809999
0.0063 0.34330001 -0.1166
-0.0024000001 0.3427 -0.1052
-0.0101 0.34130001 -0.093900003
-0.0165 0.33880001 -0.082699999
-0.0217 0.3353 -0.071599998
-0.0255 0.33059999 -0.060800001
-0.027799999 0.32460001 -0.050000001
-0.0286 0.31720001 -0.039500002
-0.027799999 0.30840001 -0.029100001
-0.0253 0.29800001 -0.018999999
-0.0211 0.28600001 -0.0091000004
-0.0149 0.27219999 0.00060000003
-0.0068000001 0.25659999 0.0099999998
-0.0163 0.27689999 0.025900001
-0.023800001 0.29539999 0.041499998
-0.0295 0.31220001 0.056899998
-0.033399999 0.32730001 0.072099999
-0.035599999 0.34079999 0.086999997
-0.0361 0.3529 0.1018
-0.0352 0.36359999 0.1164
-0.0328 0.373 0.13079999
-0.028999999 0.3813 0.145
-0.0239 0.38839999 0.1592
-0.0177 0.3946 0.1732
-0.0103 0.39989999 0.18709999
-0.0019 0.40439999 0.2009
0.0074 0.40830001 0.2146
0.0176 0.41150001 0.2282
0.0286 0.41420001 0.2418
0.0403 0.4165 0.2554
0.0526 0.41850001 0.26890001
0.065399997 0.42030001 0.2825
0.078699999 0.42199999 0.296
0.1013 0.30379999 -0.1978
0.087200001 0.30689999 -0.1864
0.0735 0.30989999 -0.175
0.060199998 0.3127 -0.1636
0.047600001 0.3152 -0.1522
0.035599999 0.31740001 -0.1409
0.0243 0.31909999 -0.1296
0.0139 0.32030001 -0.1184
0.0044 0.32080001 -0.1072
-0.0041 0.3206 -0.096100003
-0.0115 0.31959999 -0.085199997
-0.0177 0.31779999 -0.0744
-0.022700001 0.31490001 -0.063600004
-0.0263 0.31099999 -0.053100001
-0.0284 0.30590001 -0.0427
-0.029100001 0.29960001 -0.032499999
-0.028100001 0.292 -0.022399999
-0.0255 0.28290001 -0.0126
-0.021 0.2723 -0.003
-0.0147 0.26019999 0.0063999998
-0.0065000001 0.2463 0.0156
-0.016000001 0.2651 0.030999999
-0.023700001 0.28209999 0.046100002
-0.0295 0.2976 0.061000001
-0.033399999 0.3116 0.0757
-0.035700001 0.32409999 0.090099998
-0.036400001 0.3353 0.1044
-0.035599999 0.34529999 0.1186
-0.033300001 0.35409999 0.13249999
-0.0297 0.3619 0.1463
-0.024800001 0.3687 0.16
-0.0187 0.37450001 0.1736
-0.0115 0.37959999 0.18700001
-0.0034 0.384 0.20039999
0.0057000001 0.38769999 0.2137
0.015699999 0.39089999 0.2269
0.0263 0.39359999 0.2401
0.037700001 0.396 0.25330001
0.049600001 0.39809999 0.26640001
0.061999999 0.40000001 0.27950001
0.0748 0.40180001 0.29260001
0.096000001 0.28080001 -0.1849
0.082500003 0.28400001 -0.17389999
0.069300003 0.287 -0.1628
0.056499999 0.2899 -0.15180001
0.044300001 0.29260001 -0.1408
0.032699998 0.2949 -0.12989999
0.0218 0.29679999 -0.119
0.0117 0.29820001 -0.1081
0.0024999999 0.29910001 -0.097400002
-0.0057000001 0.29929999 -0.0867
-0.0128 0.29879999 -0.076099999
-0.0188 0.29750001 -0.0656
-0.023600001 0.29530001 -0.055300001
-0.027000001 0.2922 -0.0451
-0.028899999 0.28799999 -0.035
-0.0294 0.28279999 -0.0252
-0.0283 0.27630001 -0.0154
-0.0255 0.26859999 -0.0059000002
-0.0209 0.2595 0.0034
-0.0145 0.249 0.0125
-0.0060999999 0.237 0.021299999
-0.015699999 0.25400001 0.036200002
-0.023499999 0.2696 0.050799999
-0.029300001 0.28380001 0.065099999
-0.033399999 0.29660001 0.079300001
-0.035799999 0.30809999 0.0933
-0.036499999 0.3184 0.1071
-0.035799999 0.3276 0.1207
-0.0337 0.33579999 0.13420001
-0.030200001 0.34310001 0.1476
-0.0255 0.34940001 0.1608
-0.0196 0.35499999 0.17389999
-0.0127 0.35980001 0.1869
-0.0046999999 0.36399999 0.1998
0.0041 0.36770001 0.21269999
0.0137 0.37079999 0.2255
0.024 0.37360001 0.23819999
0.035 0.37599999 0.2509
0.046500001 0.37810001 0.26359999
0.058400001 0.38010001 0.2762
0.070699997 0.382 0.28889999
0.090599999 0.2588 -0.1715
0.077600002 0.26199999 -0.1608
0.064999998 0.2651 -0.15019999
0.052700002 0.26809999 -0.13959999
0.040899999 0.27079999 -0.12899999
0.0298 0.27329999 -0.1185
0.019300001 0.27540001 -0.108
0.0096000005 0.2771 -0.097499996
0.00069999998 0.2782 -0.087200001
-0.0071999999 0.27880001 -0.076899998
-0.0141 0.27880001 -0.066699997
-0.0198 0.27810001 -0.056600001
-0.0243 0.2766 -0.046599999
-0.0275 0.27419999 -0.036800001
-0.029300001 0.271 -0.027100001
-0.0296 0.2667 -0.0176
-0.0284 0.26140001 -0.0082
-0.0254 0.255 0.00089999998
-0.0207 0.2474 0.0098999999
-0.0142 0.2386 0.0187
-0.0057000001 0.22840001 0.0273
-0.0154 0.2438 0.041499998
-0.0231 0.25780001 0.055599999
-0.029100001 0.27059999 0.069399998
-0.033199999 0.28220001 0.082999997
-0.035700001 0.29269999 0.096500002
-0.036600001 0.3021 0.1098
-0.035999998 0.31060001 0.1229
-0.034000002 0.31810001 0.13590001
-0.0306 0.32480001 0.1488
-0.0261 0.33070001 0.16150001
-0.020400001 0.336 0.1741
-0.0137 0.3405 0.1867
-0.0060999999 0.34459999 0.1991
0.0024000001 0.34810001 0.2115
0.0117 0.35120001 0.2238
0.0217 0.35389999 0.2361
0.032200001 0.35640001 0.2483
0.043299999 0.35859999 0.26050001
0.0548 0.36070001 0.27270001
0.066600002 0.36269999 0.28490001
0.085100003 0.2378 -0.1576
0.072700001 0.241 -0.14740001
0.060600001 0.24420001 -0.1372
0.048900001 0.2472 -0.127
0.037599999 0.25 -0.1169
0.026900001 0.25260001 -0.1067
0.016799999 0.25490001 -0.096699998
0.0074999998 0.2568 -0.086599998
-0.0011 0.25830001 -0.076700002
-0.0086000003 0.25920001 -0.066799998
-0.0152 0.2597 -0.057
-0.0207 0.2595 -0.0473
-0.025 0.2586 -0.037700001
-0.028000001 0.25709999 -0.0283
-0.0296 0.25470001 -0.018999999
-0.0298 0.25150001 -0.0098000001
-0.0284 0.2473 -0.00079999998
-0.0253 0.2422 0.0080000004
-0.020500001 0.2361 0.0166
-0.0139 0.2289 0.0251
-0.0052999998 0.22050001 0.033300001
-0.015 0.2341 0.046999998
-0.0228 0.2467 0.0605
-0.0287 0.2581 0.073700003
-0.032900002 0.2685 0.086800002
-0.035500001 0.27790001 0.099799998
-0.036499999 0.28639999 0.1125
-0.035999998 0.29409999 0.1251
-0.0341 0.301 0.1376
-0.030999999 0.3071 0.1499
-0.0266 0.31259999 0.1622
-0.021199999 0.3175 0.1743
-0.0147 0.32179999 0.18629999
-0.0074 0.3256 0.1983
0.00079999998 0.329 0.2102
0.0098000001 0.33199999 0.222
0.019300001 0.33469999 0.23379999
0.0295 0.33719999 0.2455
0.040100001 0.33950001 0.25729999
0.051100001 0.3416 0.26899999
0.0623 0.34369999 0.2807
0.079599999 0.21780001 -0.1434
0.0678 0.221 -0.1337
0.056299999 0.2242 -0.1239
0.045000002 0.2273 -0.1141
0.034299999 0.23019999 -0.1044
0.024 0.23289999 -0.094700001
0.0143 0.2353 -0.085000001
0.0054000001 0.2374 -0.075400002
-0.0027999999 0.2392 -0.065899998
-0.0099999998 0.2405 -0.056400001
-0.0163 0.2414 -0.0471
-0.021500001 0.24169999 -0.037799999
-0.025599999 0.24150001 -0.0286
-0.0283 0.24070001 -0.0196
-0.0298 0.23909999 -0.0107
-0.0298 0.2369 -0.0019
-0.028200001 0.2339 0.0066999998
-0.0251 0.23010001 0.0152
-0.020199999 0.2254 0.023499999
-0.0135 0.2198 0.031599998
-0.0049000001 0.2132 0.039500002
-0.0146 0.2251 0.0526
-0.022399999 0.2361 0.065499999
-0.0283 0.2462 0.078199998
-0.032600001 0.2554 0.090700001
-0.0352 0.26370001 0.1031
-0.0363 0.27129999 0.1153
-0.0359 0.2782 0.12729999
-0.034200002 0.28439999 0.1393
-0.031199999 0.28999999 0.15109999
-0.027100001 0.29499999 0.1628
-0.0219 0.29949999 0.1744
-0.015699999 0.3035 0.1859
-0.0086000003 0.3071 0.1974
-0.00069999998 0.31040001 0.2088
0.0077999998 0.31330001 0.2201
0.017000001 0.31600001 0.2314
0.026699999 0.31850001 0.24259999
0.036800001 0.32080001 0.25389999
0.0473 0.32300001 0.2651
0.057999998 0.3251 0.27630001
0.074000001 0.1989 -0.12899999
0.062799998 0.20209999 -0.1196
0.051899999 0.2053 -0.1103
0.041200001 0.2084 -0.101
0.0309 0.2113 -0.091700003
0.0211 0.2141 -0.082400002
0.0119 0.2167 -0.073200002
0.0034 0.219 -0.064000003
-0.0044 0.221 -0.054900002
-0.0113 0.2226 -0.045899998
-0.0173 0.22390001 -0.037
-0.0222 0.22480001 -0.028100001
-0.026000001 0.2251 -0.019300001
-0.0286 0.22499999 -0.0107
-0.029899999 0.2243 -0.0022
-0.0297 0.22310001 0.0062000002
-0.028100001 0.2212 0.0144
-0.024800001 0.2186 0.022500001
-0.0199 0.21529999 0.0305
-0.0132 0.2112 0.038199998
-0.0046000001 0.20640001 0.0458
-0.0142 0.2166 0.058200002
-0.0219 0.2261 0.070500001
-0.027899999 0.2348 0.082599998
-0.032099999 0.2428 0.094599999
-0.0348 0.25009999 0.1064
-0.035999998 0.2568 0.118
-0.035700001 0.26280001 0.1296
-0.0341 0.26840001 0.141
-0.031399999 0.27340001 0.1522
-0.0274 0.27790001 0.16339999
-0.022500001 0.28209999 0.1745
-0.0166 0.28580001 0.1855
-0.0098000001 0.28920001 0.1964
-0.0023000001 0.29229999 0.20730001
0.0059000002 0.2951 0.2181
0.0147 0.29769999 0.2289
0.0239 0.30019999 0.2396
0.033599999 0.30250001 0.25040001
0.043499999 0.30469999 0.26109999
0.0537 0.30689999 0.27180001
0.068400003 0.18099999 -0.1143
0.0579 0.1842 -0.1054
0.047499999 0.1874 -0.096500002
0.0374 0.1904 -0.0876
0.0276 0.1934 -0.0788
0.018300001 0.1963 -0.07
0.0096000005 0.199 -0.0612
0.0015 0.2014 -0.052499998
-0.0059000002 0.20370001 -0.0438
-0.0125 0.20559999 -0.0352
-0.018200001 0.20730001 -0.026699999
-0.0228 0.2086 -0.018300001
-0.0264 0.2096 -0.0098999999
-0.0288 0.2101 -0.0017
-0.0298 0.2103 0.0063999998
-0.0296 0.20990001 0.0144
-0.027799999 0.20909999 0.0222
-0.024499999 0.2077 0.029899999
-0.0195 0.2057 0.037500001
-0.0128 0.2031 0.0449
-0.0043000001 0.1999 0.052099999
-0.0138 0.2086 0.064000003
-0.021400001 0.2165 0.075599998
-0.0274 0.22390001 0.087200001
-0.031599998 0.2307 0.098499998
-0.034299999 0.2369 0.1097
-0.035599999 0.2427 0.1208
-0.035399999 0.248 0.1318
-0.034000002 0.25279999 0.1426
-0.031399999 0.25729999 0.1534
-0.0277 0.26140001 0.164
-0.023 0.2651 0.17460001
-0.0174 0.26859999 0.185
-0.0109 0.27169999 0.1954
-0.0038000001 0.27469999 0.2058
0.0040000002 0.27739999 0.21610001
0.0124 0.28 0.2263
0.021199999 0.28240001 0.2366
0.030300001 0.28470001 0.24680001
0.039700001 0.28690001 0.257
0.0493 0.28920001 0.26710001
0.062799998 0.16419999 -0.0995
0.052900001 0.1673 -0.090999998
0.043099999 0.1705 -0.082599998
0.033599999 0.1735 -0.074199997
0.0244 0.17649999 -0.065800004
0.0156 0.1794 -0.057399999
0.0073000002 0.1822 -0.0491
-0.00039999999 0.1848 -0.040800001
-0.0074 0.1873 -0.032600001
-0.0136 0.1895 -0.0244
-0.018999999 0.19149999 -0.0164
-0.023399999 0.19329999 -0.0083999997
-0.026699999 0.1948 -0.00050000002
-0.0288 0.19599999 0.0073000002
-0.0298 0.1969 0.015
-0.029300001 0.1974 0.022600001
-0.0275 0.19750001 0.030099999
-0.0241 0.1973 0.0374
-0.019200001 0.19660001 0.044599999
-0.0125 0.1954 0.051600002
-0.0040000002 0.1938 0.058499999
-0.0134 0.2008 0.069700003
-0.021 0.20730001 0.080799997
-0.026799999 0.21340001 0.091700003
-0.031099999 0.219 0.1025
-0.033799998 0.2243 0.1131
-0.035100002 0.2291 0.1236
-0.035100002 0.23360001 0.134
-0.033799998 0.2378 0.1443
-0.031399999 0.24169999 0.15449999
-0.027899999 0.24529999 0.1646
-0.023499999 0.24869999 0.17460001
-0.018100001 0.2518 0.18449999
-0.012 0.25479999 0.1944
-0.0052 0.25749999 0.2042
0.0022 0.26010001 0.214
0.0101 0.2626 0.2237
0.0184 0.26499999 0.2334
0.027100001 0.26730001 0.2431
0.035999998 0.2696 0.25279999
0.045000002 0.27180001 0.2624
0.057300001 0.14839999 -0.084600002
0.048 0.1515 -0.0766
0.038800001 0.15459999 -0.068599999
0.0298 0.1577 -0.060600001
0.0211 0.16069999 -0.052700002
0.0128 0.1636 -0.044799998
0.0049999999 0.1664 -0.036899999
-0.0022 0.1692 -0.029100001
-0.0088 0.1718 -0.021299999
-0.0147 0.1743 -0.0136
-0.0197 0.17659999 -0.0060000001
-0.023800001 0.1788 0.0016
-0.026900001 0.18080001 0.0091000004
-0.0288 0.1825 0.0165
-0.0296 0.1841 0.023700001
-0.029100001 0.18539999 0.0309
-0.027100001 0.1865 0.037999999
-0.023800001 0.1873 0.0449
-0.0188 0.18780001 0.0517
-0.0122 0.1881 0.058400001
-0.0038999999 0.18799999 0.064900003
-0.013 0.1934 0.075499997
-0.020500001 0.19850001 0.085900001
-0.0263 0.2033 0.096199997
-0.0305 0.2078 0.1064
-0.033199999 0.212 0.1165
-0.034600001 0.21600001 0.12639999
-0.034699999 0.2198 0.1362
-0.033500001 0.2233 0.146
-0.031300001 0.22669999 0.1556
-0.028000001 0.2298 0.16509999
-0.0239 0.23280001 0.17460001
-0.0188 0.23559999 0.184
-0.0131 0.2383 0.19329999
-0.0066 0.24089999 0.2026
0.00039999999 0.24339999 0.2119
0.0077999998 0.2458 0.2211
0.015699999 0.2481 0.23019999
0.023800001 0.25040001 0.2394
0.032200001 0.25260001 0.2485
0.0407 0.25479999 0.25760001
0.051800001 0.1338 -0.069600001
0.043200001 0.13680001 -0.062100001
0.034600001 0.1398 -0.0546
0.0261 0.1428 -0.0471
0.017999999 0.14579999 -0.0396
0.0102 0.1487 -0.032099999
0.0027999999 0.1516 -0.024700001
-0.0040000002 0.15440001 -0.0173
-0.0102 0.15719999 -0.0099999998
-0.015699999 0.15989999 -0.0027999999
-0.020400001 0.16249999 0.0044
-0.0242 0.16500001 0.0116
-0.027000001 0.1675 0.0186
-0.0288 0.1698 0.025599999
-0.0294 0.17200001 0.032400001
-0.0287 0.17399999 0.0392
-0.026799999 0.176 0.045899998
-0.023399999 0.1778 0.0524
-0.0185 0.1794 0.058800001
-0.012 0.18089999 0.065099999
-0.0038000001 0.1822 0.0713
-0.0127 0.18610001 0.081200004
-0.02 0.1899 0.0911
-0.025699999 0.1934 0.1008
-0.029899999 0.1969 0.1104
-0.032600001 0.20020001 0.1198
-0.034000002 0.2033 0.1292
-0.034200002 0.20640001 0.1384
-0.033199999 0.2093 0.1476
-0.031099999 0.2121 0.1567
-0.028100001 0.2148 0.1657
-0.0242 0.2174 0.17460001
-0.0195 0.2199 0.18350001
-0.0141 0.22239999 0.19220001
-0.0080000004 0.22480001 0.20100001
-0.0014 0.2271 0.2097
0.0055999998 0.22939999 0.2184
0.013 0.2316 0.227
0.0206 0.2339 0.23559999
0.0285 0.2361 0.24420001
0.036400001 0.2383 0.25279999
0.046399999 0.1202 -0.054699998
0.038400002 0.1231 -0.047600001
0.030400001 0.126 -0.040600002
0.022500001 0.12899999 -0.033500001
0.0149 0.1319 -0.0265
0.0076000001 0.1348 -0.0195
0.00069999998 0.13770001 -0.0125
-0.0057000001 0.1406 -0.0055999998
-0.0115 0.1435 0.0013
-0.0166 0.1464 0.0081000002
-0.021 0.14920001 0.0148
-0.024499999 0.1521 0.021500001
-0.027100001 0.1549 0.028100001
-0.0286 0.1577 0.034699999
-0.029100001 0.1604 0.041099999
-0.0284 0.16320001 0.047499999
-0.0263 0.16590001 0.0537
-0.023 0.16859999 0.059900001
-0.018100001 0.17120001 0.065899998
-0.0118 0.17380001 0.071800001
-0.0038000001 0.17640001 0.077600002
-0.0125 0.1789 0.086999997
-0.0196 0.1814 0.096199997
-0.0251 0.1839 0.1053
-0.029200001 0.18629999 0.1143
-0.0319 0.18870001 0.1231
-0.033399999 0.191 0.1319
-0.033599999 0.1934 0.1406
-0.0328 0.1957 0.14920001
-0.0309 0.1979 0.1577
-0.028100001 0.20020001 0.1662
-0.024499999 0.2025 0.1745
-0.020099999 0.20469999 0.1829
-0.015 0.2069 0.1911
-0.0093 0.20909999 0.19930001
-0.0031999999 0.2113 0.2075
0.0034 0.21349999 0.2156
0.0103 0.2156 0.2237
0.0175 0.21780001 0.2318
0.024700001 0.22 0.23989999
0.032099999 0.22220001 0.24789999
0.041099999 0.1076 -0.039799999
0.033599999 0.1105 -0.033199999
0.0262 0.1133 -0.0266
0.0189 0.1161 -0.02
0.0118 0.119 -0.0135
0.0051000002 0.1219 -0.0068999999
-0.0014 0.1248 -0.00039999999
-0.0073000002 0.1277 0.0060999999
-0.0127 0.13070001 0.0125
-0.0174 0.1337 0.0189
-0.021500001 0.1367 0.0252
-0.024700001 0.1398 0.031399999
-0.027100001 0.14300001 0.037599999
-0.0284 0.1462 0.043699998
-0.0288 0.1494 0.049800001
-0.028000001 0.15279999 0.0557
-0.025900001 0.15620001 0.061500002
-0.022600001 0.15970001 0.067299999
-0.017899999 0.16320001 0.072899997
-0.0117 0.16689999 0.078500003
-0.0038999999 0.1706 0.083899997
-0.0123 0.1718 0.092600003
-0.019200001 0.17309999 0.1012
-0.024599999 0.1745 0.1097
-0.0286 0.1759 0.1181
-0.031300001 0.17749999 0.12639999
-0.032699998 0.17910001 0.1346
-0.033100002 0.1807 0.1427
-0.032400001 0.1825 0.1508
-0.0307 0.18430001 0.1587
-0.028100001 0.18610001 0.1666
-0.024700001 0.18799999 0.1744
-0.0206 0.1899 0.1822
-0.015900001 0.1919 0.1899
-0.0106 0.1939 0.19760001
-0.0049000001 0.19599999 0.2052
0.0013 0.198 0.2128
0.0077 0.2001 0.22040001
0.0143 0.2022 0.228
0.0211 0.2043 0.23549999
0.027899999 0.20640001 0.243
0.0359 0.096100003 -0.0251
0.028999999 0.098800004 -0.0189
0.0222 0.1016 -0.0128
0.0154 0.1043 -0.0066
0.0088999998 0.1071 -0.00050000002
0.0026 0.1099 0.0055999998
-0.0033 0.1128 0.0116
-0.0088 0.1157 0.0176
-0.0138 0.1187 0.023600001
-0.018200001 0.1218 0.0295
-0.0219 0.125 0.035399999
-0.024900001 0.1283 0.041200001
-0.027000001 0.13169999 0.046999998
-0.028200001 0.1353 0.052700002
-0.0284 0.139 0.0583
-0.0275 0.1428 0.0638
-0.0255 0.1468 0.069300003
-0.0222 0.15099999 0.074600004
-0.0176 0.15530001 0.079899997
-0.0116 0.15989999 0.085000001
-0.0041 0.1646 0.090099998
-0.0122 0.1646 0.098200001
-0.0188 0.1648 0.1062
-0.0241 0.1652 0.1141
-0.027899999 0.16580001 0.1219
-0.0306 0.1665 0.1296
-0.032099999 0.1674 0.1372
-0.032499999 0.16850001 0.14480001
-0.0319 0.1697 0.1523
-0.030400001 0.171 0.15970001
-0.028000001 0.1725 0.167
-0.024900001 0.17399999 0.1743
-0.0211 0.17569999 0.1815
-0.0167 0.17739999 0.18870001
-0.0118 0.17919999 0.19580001
-0.0065000001 0.1811 0.20290001
-0.00089999998 0.183 0.20999999
0.0051000002 0.185 0.21699999
0.0112 0.18700001 0.22400001
0.0175 0.189 0.23109999
0.023700001 0.1911 0.23810001
0.0307 0.085699998 -0.0104
0.0244 0.088200003 -0.0046999999
0.018200001 0.090800002 0.001
0.012 0.093400002 0.0066
0.0060000001 0.096100003 0.0123
0.00019999999 0.098800004 0.017899999
-0.0052999998 0.1017 0.023499999
-0.0103 0.1046 0.029100001
-0.0149 0.1076 0.034600001
-0.0189 0.1107 0.040100001
-0.022299999 0.114 0.045600001
-0.025 0.1175 0.050999999
-0.026900001 0.1211 0.056299999
-0.027899999 0.1249 0.061500002
-0.028000001 0.12899999 0.066699997
-0.027100001 0.1332 0.071900003
-0.0251 0.13770001 0.076899998
-0.0219 0.1424 0.081900001
-0.0175 0.14740001 0.0867
-0.0117 0.15270001 0.091499999
-0.0044999998 0.1583 0.096199997
-0.0123 0.1573 0.1037
-0.0186 0.1565 0.1111
-0.023600001 0.156 0.1184
-0.0273 0.1558 0.1256
-0.029899999 0.1558 0.1327
-0.031399999 0.1561 0.1398
-0.031800002 0.1566 0.14669999
-0.031300001 0.1573 0.15369999
-0.029999999 0.1582 0.1605
-0.027899999 0.1593 0.1673
-0.025 0.1605 0.17399999
-0.021600001 0.1619 0.1807
-0.0175 0.16339999 0.1873
-0.0131 0.16500001 0.1939
-0.0082 0.16670001 0.2005
-0.0029 0.16850001 0.207
0.0024999999 0.17039999 0.21359999
0.0082 0.1723 0.2201
0.0139 0.1742 0.2265
0.0196 0.1762 0.233
0.025699999 0.076200001 0.0041
0.02 0.078599997 0.0093
0.0142 0.081100002 0.0146
0.0086000003 0.0836 0.0198
0.0031000001 0.086099997 0.025
-0.0022 0.088699996 0.030200001
-0.0071 0.091399997 0.035300002
-0.0118 0.094300002 0.040399998
-0.015900001 0.0973 0.045499999
-0.0196 0.1004 0.0506
-0.022700001 0.1038 0.055599999
-0.0251 0.1073 0.0605
-0.026799999 0.1111 0.065399997
-0.0276 0.1151 0.070299998
-0.0276 0.1194 0.075000003
-0.026699999 0.1239 0.079700001
-0.024700001 0.1288 0.084399998
-0.021600001 0.134 0.089000002
-0.0174 0.13950001 0.093400002
-0.0119 0.1454 0.097800002
-0.0051000002 0.1517 0.1021
-0.0124 0.1497 0.109
-0.0184 0.1481 0.1158
-0.0232 0.1468 0.1225
-0.026699999 0.1459 0.12909999
-0.029200001 0.1453 0.1357
-0.0307 0.145 0.14219999
-0.031199999 0.145 0.1486
-0.0308 0.1453 0.1549
-0.0296 0.14579999 0.1612
-0.0277 0.14650001 0.1675
-0.0251 0.14740001 0.1736
-0.022 0.1485 0.1798
-0.018300001 0.1498 0.1859
-0.0142 0.1512 0.192
-0.0097000003 0.15279999 0.198
-0.0049999999 0.15440001 0.204
0 0.1561 0.20999999
0.0052 0.15790001 0.21600001
0.0104 0.15979999 0.2219
0.0156 0.16159999 0.2279
0.0207 0.0678 0.0184
0.0156 0.07 0.0232
0.0104 0.072300002 0.028000001
0.0052999998 0.074600004 0.032699998
0.00030000001 0.077 0.037500001
-0.0044 0.079499997 0.042199999
-0.0089999996 0.082099997 0.0469
-0.0131 0.084799998 0.051600002
-0.016899999 0.087800004 0.056200001
-0.020199999 0.090899996 0.060800001
-0.023 0.0942 0.065399997
-0.0251 0.097800002 0.069899999
-0.0266 0.1016 0.0744
-0.0273 0.1058 0.0788
-0.0272 0.1102 0.0832
-0.0263 0.115 0.087499999
-0.0244 0.1201 0.091700003
-0.021400001 0.1256 0.095899999
-0.0174 0.13150001 0.1
-0.0122 0.13779999 0.104
-0.0057999999 0.1446 0.1079
-0.0127 0.1418 0.1142
-0.018300001 0.13950001 0.1204
-0.0228 0.1376 0.1265
-0.0262 0.13600001 0.13259999
-0.0286 0.1349 0.13850001
-0.029999999 0.13410001 0.1444
-0.0305 0.1337 0.1503
-0.030300001 0.13349999 0.1561
-0.029200001 0.1337 0.1618
-0.0275 0.13410001 0.1675
-0.0252 0.1348 0.17309999
-0.022399999 0.1356 0.1787
-0.019099999 0.1367 0.18430001
-0.0153 0.13789999 0.1899
-0.0113 0.1393 0.1954
-0.0070000002 0.1408 0.2008
-0.0024999999 0.1424 0.20630001
0.0022 0.14399999 0.21170001
0.0068999999 0.14579999 0.2172
0.0116 0.14749999 0.2226
0.015900001 0.060199998 0.032600001
0.0112 0.0623 0.036899999
0.0066 0.064400002 0.041200001
0.0020999999 0.066500001 0.045499999
-0.0024000001 0.068800002 0.049800001
-0.0066999998 0.071099997 0.054099999
-0.0107 0.073600002 0.0583
-0.0145 0.076200001 0.062600002
-0.0178 0.079000004 0.066799998
-0.0208 0.082099997 0.070900001
-0.0232 0.085299999 0.075099997
-0.0251 0.0889 0.0792
-0.0264 0.092699997 0.0832
-0.027000001 0.096900001 0.087200001
-0.026900001 0.1013 0.0911
-0.025900001 0.1062 0.094999999
-0.0241 0.1115 0.098899998
-0.021299999 0.1171 0.1026
-0.0175 0.1233 0.1063
-0.0127 0.12989999 0.11
-0.0068000001 0.13699999 0.1135
-0.0131 0.1336 0.1192
-0.0184 0.13060001 0.1248
-0.022500001 0.12819999 0.1303
-0.025699999 0.12620001 0.1358
-0.028000001 0.1246 0.14120001
-0.029300001 0.1234 0.14650001
-0.029899999 0.1226 0.15180001
-0.0297 0.1221 0.15700001
-0.0288 0.122 0.1622
-0.0273 0.1221 0.1674
-0.0253 0.1225 0.1725
-0.022700001 0.1232 0.17749999
-0.0198 0.124 0.18260001
-0.0165 0.1251 0.1876
-0.0128 0.12630001 0.1925
-0.0088999998 0.1276 0.19750001
-0.0049000001 0.12909999 0.2024
-0.00069999998 0.13060001 0.20739999
0.0035000001 0.1322 0.2123
0.0077 0.1338 0.2172
0.0111 0.053599998 0.046500001
0.0070000002 0.055500001 0.0504
0.0029 0.057399999 0.054200001
-0.0011 0.059300002 0.0581
-0.0051000002 0.0614 0.061900001
-0.0088999998 0.063600004 0.065800004
-0.0124 0.065899998 0.069600001
-0.015799999 0.068300001 0.073399998
-0.0187 0.071000002 0.077100001
-0.021299999 0.073899999 0.080799997
-0.023499999 0.077100001 0.0845
-0.0251 0.080499999 0.088200003
-0.0262 0.084200002 0.091799997
-0.026699999 0.088299997 0.095399998
-0.0265 0.092799999 0.098899998
-0.025599999 0.097599998 0.1024
-0.023800001 0.1029 0.1058
-0.021299999 0.1086 0.1092
-0.0178 0.1148 0.1125
-0.0133 0.1215 0.1157
-0.0078999996 0.1287 0.1189
-0.0137 0.1248 0.124
-0.0185 0.1215 0.12899999
-0.022399999 0.1186 0.1339
-0.0253 0.1162 0.1388
-0.0274 0.1143 0.1436
-0.0287 0.1128 0.14839999
-0.029200001 0.1117 0.1531
-0.029100001 0.111 0.1578
-0.0284 0.1106 0.16240001
-0.027100001 0.1105 0.167
-0.0253 0.1107 0.1716
-0.0231 0.1111 0.1761
-0.020500001 0.1118 0.1806
-0.0175 0.1126 0.1851
-0.0143 0.1137 0.1895
-0.0109 0.1149 0.19400001
-0.0073000002 0.1162 0.19840001
-0.0035999999 0.1175 0.20280001
9.9999997e-05 0.119 0.2071
0.0038000001 0.1205 0.2115
0.0063999998 0.047899999 0.060199998
0.0027999999 0.0495 0.063699998
-0.00069999998 0.051199999 0.067100003
-0.0043000001 0.052999999 0.070500001
-0.0077 0.0548 0.073899999
-0.011 0.0568 0.077200003
-0.0141 0.058899999 0.080600001
-0.017000001 0.0612 0.083899997
-0.0196 0.063699998 0.087200001
-0.0219 0.066399999 0.090499997
-0.023700001 0.069399998 0.093800001
-0.0251 0.0726 0.097000003
-0.026000001 0.076200001 0.1002
-0.0264 0.0801 0.1033
-0.0262 0.084399998 0.1064
-0.0253 0.089100003 0.1095
-0.023700001 0.094300002 0.1125
-0.021299999 0.0999 0.1155
-0.018200001 0.1059 0.1184
-0.0142 0.1125 0.1213
-0.0092000002 0.1197 0.1241
-0.0145 0.1155 0.1285
-0.0188 0.1119 0.1329
-0.022299999 0.1088 0.1373
-0.025 0.1062 0.1416
-0.026900001 0.104 0.14579999
-0.028100001 0.1023 0.15000001
-0.0286 0.101 0.1542
-0.0286 0.1001 0.1583
-0.028000001 0.0995 0.16240001
-0.026900001 0.099200003 0.1664
-0.0254 0.099200003 0.1705
-0.023399999 0.0995 0.1744
-0.021199999 0.1 0.17839999
-0.0186 0.1007 0.1823
-0.015799999 0.1015 0.18629999
-0.0128 0.1025 0.1902
-0.0097000003 0.1037 0.19400001
-0.0065000001 0.1049 0.1979
-0.0031999999 0.1062 0.2018
0 0.1075 0.20559999
0.0017 0.043000001 0.073799998
-0.0013 0.044399999 0.076700002
-0.0043000001 0.045899998 0.079700001
-0.0074 0.047400001 0.082599998
-0.0103 0.0491 0.085600004
-0.0131 0.050799999 0.088500001
-0.015799999 0.052700002 0.091399997
-0.018300001 0.054699998 0.0942
-0.020500001 0.057 0.097099997
-0.022399999 0.059500001 0.0999
-0.024 0.062199999 0.1028
-0.0251 0.065200001 0.1055
-0.025900001 0.068599999 0.1083
-0.0261 0.0722 0.111
-0.025900001 0.076300003 0.1137
-0.0251 0.080700003 0.1164
-0.023600001 0.085600004 0.119
-0.021500001 0.090899996 0.1215
-0.0187 0.096699998 0.1241
-0.0152 0.103 0.1266
-0.0108 0.1098 0.12899999
-0.0154 0.1056 0.1328
-0.019300001 0.1019 0.1366
-0.022299999 0.098700002 0.14040001
-0.024700001 0.096000001 0.1441
-0.0264 0.093699999 0.1478
-0.0275 0.091899998 0.1514
-0.028100001 0.090400003 0.155
-0.028100001 0.089400001 0.1586
-0.0276 0.088600002 0.1621
-0.026699999 0.088200003 0.1656
-0.0254 0.088100001 0.169
-0.023800001 0.088200003 0.1725
-0.0218 0.088500001 0.1759
-0.0196 0.089100003 0.1793
-0.017200001 0.0898 0.18269999
-0.0147 0.090700001 0.18610001
-0.012 0.091600001 0.1894
-0.0093 0.092699997 0.1928
-0.0065000001 0.093800001 0.1961
-0.0038000001 0.094999999 0.19939999
-0.0029 0.038800001 0.087099999
-0.0054000001 0.039999999 0.089599997
-0.0078999996 0.041299999 0.092100002
-0.0104 0.042599998 0.094599999
-0.0129 0.044 0.097000003
-0.0152 0.045499999 0.0995
-0.0174 0.0471 0.1019
-0.0195 0.048900001 0.1044
-0.021299999 0.050900001 0.1068
-0.0229 0.053100001 0.1092
-0.0242 0.055500001 0.1115
-0.0252 0.058200002 0.1139
-0.025699999 0.0612 0.1162
-0.025900001 0.064599998 0.1185
-0.025699999 0.0682 0.1207
-0.024900001 0.072300002 0.123
-0.023700001 0.076700002 0.1252
-0.0218 0.081600003 0.12729999
-0.019400001 0.086900003 0.1295
-0.0164 0.092699997 0.13150001
-0.0126 0.098999999 0.1336
-0.0166 0.094899997 0.13680001
-0.0199 0.091300003 0.14
-0.022500001 0.088200003 0.1432
-0.024599999 0.085500002 0.1463
-0.0261 0.083300002 0.1494
-0.027100001 0.0814 0.1524
-0.0275 0.079999998 0.15549999
-0.0276 0.0788 0.1585
-0.0272 0.078000002 0.16140001
-0.0265 0.077500001 0.1644
-0.0254 0.077299997 0.1673
-0.0241 0.077299997 0.17020001
-0.022500001 0.077500001 0.17309999
-0.0207 0.0779 0.1759
-0.0187 0.078500003 0.1788
-0.0166 0.0792 0.1816
-0.0143 0.079999998 0.18440001
-0.0121 0.080899999 0.18719999
-0.0098000001 0.081799999 0.19
