# .PCD v0.7 - Point Cloud Data file format
VERSION 0.7
FIELDS x y z
SIZE 4 4 4
TYPE F F F
COUNT 1 1 1
WIDTH 1393
HEIGHT 1
VIEWPOINT 0 0 0 1 0 0 0
POINTS 1393
DATA ascii
-0.028777121 0.1245224 0.0094094845
-0.01969325 0.1322131 0.004463736
-0.01047996 0.141112 -0.001864097
-0.001128612 0.1512996 -0.0095402002
0.0083694085 0.1628564 -0.01853076
0.01802274 0.175863 -0.028801961
0.02784 0.1904 -0.040320002
0.034375701 0.17430329 -0.028801961
0.04107533 0.15973701 -0.01853076
0.04793027 0.14662039 -0.0095402002
0.05493189 0.13487311 -0.001864097
0.062071562 0.1244145 0.004463736
0.069340654 0.1151641 0.0094094845
0.076730542 0.1070413 0.01293934
0.084232591 0.099965513 0.01501948
0.091838174 0.093856297 0.0156161
0.099538669 0.08863309 0.01469538
0.1073254 0.084215313 0.01222352
0.1151899 0.080522433 0.0081666913
0.1231233 0.077473909 0.002491089
0.13111719 0.074989192 -0.0048371018
0.13916279 0.072987743 -0.01385169
0.14725161 0.071389012 -0.024586501
0.1553749 0.070112459 -0.03707533
0.163524 0.069077536 -0.051352009
0.1716904 0.06820371 -0.067450337
0.17986549 0.067410417 -0.085404143
-0.1596462 0.1115283 -0.087725647
-0.1508337 0.1106883 -0.069134846
-0.1420164 0.1099353 -0.05246602
-0.1331895 0.1093562 -0.03768478
-0.1243479 0.109038 -0.024756759
-0.1154869 0.1090676 -0.01364761
-0.1066016 0.1095321 -0.0043229428
-0.097687162 0.1105183 0.0032515931
-0.088738717 0.1121133 0.009110366
-0.079751417 0.1144041 0.01328774
-0.070720397 0.1174774 0.015818089
-0.06164081 0.1214205 0.01673577
-0.05250778 0.12632009 0.016075149
-0.04331645 0.1322633 0.01387059
-0.03406198 0.139337 0.01015647
-0.0247395 0.1476282 0.0049671452
-0.01534415 0.1572239 -0.001663017
-0.005871085 0.168211 -0.0096996501
0.0036845659 0.1806764 -0.01910839
0.01332765 0.1947073 -0.029854869
0.023063039 0.2103904 -0.041904721
0.03095088 0.1929983 -0.029854869
0.03893102 0.17725851 -0.01910839
0.04699859 0.1630841 -0.0096996501
0.055148751 0.150388 -0.001663017
0.063376628 0.1390834 0.0049671452
0.071677372 0.1290832 0.01015647
0.080046117 0.1203005 0.01387059
0.088478029 0.1126484 0.016075149
0.096968234 0.1060398 0.01673577
0.1055119 0.1003878 0.015818089
0.1141041 0.095605493 0.01328774
0.12274 0.091605812 0.009110366
0.1314148 0.088301852 0.0032515931
0.14012361 0.085606627 -0.0043229428
0.1488615 0.083433203 -0.01364761
0.15762369 0.081694588 -0.024756759
0.16640539 0.080303833 -0.03768478
0.17520159 0.079173967 -0.05246602
0.1840076 0.078218028 -0.069134846
0.1928184 0.077349052 -0.087725647
-0.1715996 0.12545849 -0.08921735
-0.1621915 0.1245394 -0.070153013
-0.15278269 0.123713 -0.05306026
-0.14337289 0.1230723 -0.03790452
-0.13396139 0.1227101 -0.024651241
-0.1245478 0.1227191 -0.01326582
-0.1151314 0.1231921 -0.00371371
-0.1057117 0.124222 0.0040396778
-0.096288241 0.12590159 0.01002891
-0.086860374 0.1283237 0.01428857
-0.077427574 0.1315811 0.016853221
-0.067989297 0.1357666 0.017757449
-0.058545019 0.140973 0.01703581
-0.04909417 0.1472932 0.01472289
-0.03963621 0.15481991 0.01085325
-0.030170601 0.163646 0.0054614842
-0.02069677 0.1738642 -0.00141785
-0.0112142 0.1855675 -0.0097501753
-0.0017223191 0.1988485 -0.019500921
0.0077794041 0.2138001 -0.0306355
0.01729152 0.2305152 -0.04311936
0.026595579 0.2119309 -0.0306355
0.035910029 0.1951101 -0.019500921
0.04523433 0.1799598 -0.0097501753
0.054567929 0.16638739 -0.00141785
0.063910283 0.1542999 0.0054614842
0.073260836 0.1436047 0.01085325
0.082619064 0.13420869 0.01472289
0.091984376 0.1260193 0.01703581
0.1013563 0.1189437 0.017757449
0.1107342 0.112889 0.016853221
0.1201176 0.1077624 0.01428857
0.1295059 0.1034711 0.01002891
0.1388986 0.099922329 0.0040396778
0.1482951 0.097023219 -0.00371371
0.1576948 0.094680972 -0.01326582
0.1670974 0.092802793 -0.024651241
0.17650209 0.091295838 -0.03790452
0.1859085 0.090067327 -0.05306026
0.1953159 0.089024447 -0.070153013
0.20472389 0.088074379 -0.08921735
-0.1830314 0.1404683 -0.089947253
-0.1730673 0.1394635 -0.070561863
-0.1631075 0.1385567 -0.05318195
-0.1531561 0.13784599 -0.03777305
-0.1432174 0.1374294 -0.024300709
-0.1332956 0.13740499 -0.01273043
-0.123395 0.1378708 -0.003027746
-0.1135198 0.13892481 0.0048418138
-0.1036742 0.1406651 0.01091272
-0.093862519 0.1431898 0.01521946
-0.084088907 0.1465967 0.01779649
-0.074357644 0.15098409 0.0186783
-0.064672917 0.1564499 0.017899349
-0.055039011 0.1630922 0.01549411
-0.045460131 0.171009 0.01149707
-0.035940509 0.1802983 0.0059426939
-0.02648438 0.19105829 -0.001134543
-0.01709599 0.2033869 -0.0097001689
-0.0077795591 0.2173821 -0.019719711
0.001460675 0.23314209 -0.031158689
0.01062048 0.25076479 -0.04398264
0.02139028 0.2310998 -0.031158689
0.032079659 0.2132975 -0.019719711
0.042692829 0.19726001 -0.0097001689
0.053234041 0.1828891 -0.001134543
0.06370753 0.1700868 0.0059426939
0.074117512 0.1587552 0.01149707
0.084468238 0.1487961 0.01549411
0.094763927 0.14011151 0.017899349
0.1050088 0.13260341 0.0186783
0.1152072 0.1261737 0.01779649
0.1253632 0.1207245 0.01521946
0.1354811 0.1161576 0.01091272
0.14556509 0.112375 0.0048418138
0.1556195 0.1092786 -0.003027746
0.16564851 0.1067706 -0.01273043
0.1756563 0.1047527 -0.024300709
0.1856472 0.1031269 -0.03777305
0.1956255 0.1017953 -0.05318195
0.2055952 0.1006598 -0.070561863
0.2155607 0.099622317 -0.089947253
-0.19391841 0.1566181 -0.089981131
-0.1834393 0.15552031 -0.07041651
-0.17296951 0.15452521 -0.052876621
-0.16251861 0.15373529 -0.03732736
-0.1520959 0.1532532 -0.02373464
-0.14171091 0.15318149 -0.01206435
-0.1313729 0.15362281 -0.0022823911
-0.1210914 0.15467981 0.005645337
-0.1108758 0.156455 0.01175294
-0.1007355 0.15905111 0.016074499
-0.090679973 0.1625706 0.01864415
-0.080718547 0.16711619 0.01949596
-0.070860669 0.1727905 0.018664051
-0.061115749 0.1796961 0.01618251
-0.05149322 0.1879355 0.01208545
-0.042002469 0.19761141 0.0064069661
-0.032652918 0.20882639 -0.0008188418
-0.02345399 0.2216832 -0.0095578711
-0.01441509 0.2362842 -0.01977602
-0.005545639 0.2527321 -0.031439189
0.0031449599 0.27112961 -0.044513281
0.01541584 0.25050241 -0.031439189
0.02750786 0.2318248 -0.01977602
0.039430439 0.2149941 -0.0095578711
0.05119298 0.1999076 -0.0008188418
0.062804922 0.18646289 0.0064069661
0.074275643 0.1745573 0.01208545
0.085614577 0.1640881 0.01618251
0.09683115 0.1549529 0.018664051
0.1079348 0.14704891 0.01949596
0.1189348 0.1402736 0.01864415
0.1298407 0.13452441 0.016074499
0.1406619 0.1296986 0.01175294
0.15140779 0.12569369 0.005645337
0.1620878 0.122407 -0.0022823911
0.1727113 0.1197359 -0.01206435
0.1832877 0.1175779 -0.02373464
0.1938265 0.1158303 -0.03732736
0.20433711 0.1143905 -0.052876621
0.2148288 0.113156 -0.07041651
0.2253111 0.112024 -0.089981131
-0.20423719 0.1739561 -0.089382567
-0.19328471 0.1727576 -0.069770128
-0.18234719 0.17166559 -0.05218808
-0.1714395 0.1707865 -0.036602929
-0.1605766 0.1702268 -0.022981189
-0.1497734 0.1700931 -0.01128937
-0.13904481 0.1704918 -0.00149399
-0.12840579 0.1715292 0.00643845
-0.1178713 0.1733121 0.01254144
-0.1074562 0.1759467 0.01684846
-0.097175382 0.1795397 0.019393001
-0.087043867 0.1841974 0.02020856
-0.077076547 0.1900264 0.01932863
-0.067288339 0.197133 0.01678668
-0.057694182 0.20562389 0.01261622
-0.048308991 0.2156055 0.006850733
-0.03914769 0.22718421 -0.0004762937
-0.030225219 0.24046651 -0.0093313698
-0.021556489 0.25555891 -0.01968101
-0.01315645 0.2725679 -0.031491712
-0.0050400002 0.29159999 -0.04473
0.0087534618 0.2701354 -0.031491712
0.02226332 0.25069389 -0.01968101
0.035504509 0.233169 -0.0093313698
0.04849194 0.21745411 -0.0004762937
0.06124055 0.2034429 0.006850733
0.07376527 0.19102889 0.01261622
0.086081013 0.18010551 0.01678668
0.09820272 0.17056631 0.01932863
0.1101453 0.1623048 0.02020856
0.1219237 0.15521459 0.019393001
0.1335528 0.1491892 0.01684846
0.14504761 0.144122 0.01254144
0.156423 0.1399067 0.00643845
0.1676939 0.1364366 -0.00149399
0.17887519 0.1336055 -0.01128937
0.189982 0.13130669 -0.022981189
0.2010289 0.1294339 -0.036602929
0.2120312 0.12788039 -0.05218808
0.22300351 0.12654001 -0.069770128
0.233961 0.125306 -0.089382567
-0.2139639 0.19251829 -0.0882129
-0.20258071 0.1912109 -0.068673909
-0.1912183 0.1900131 -0.051158398
-0.17989729 0.18903451 -0.03563372
-0.16863839 0.1883848 -0.02206718
-0.1574623 0.1881735 -0.01042613
-0.14638969 0.1885104 -0.00067788467
-0.13544139 0.189505 0.0072102239
-0.124638 0.191267 0.01327087
-0.1140003 0.1939059 0.017536709
-0.1035489 0.19753151 0.020040439
-0.093304537 0.20225319 0.020814709
-0.083287947 0.2081808 0.019892201
-0.073519841 0.2154239 0.01730557
-0.064020902 0.22409201 0.01308751
-0.054811839 0.23429491 0.0072706812
-0.04591335 0.246142 -0.0001122478
-0.037346158 0.25974321 -0.0090286033
-0.02913096 0.27520779 -0.019445719
-0.02128846 0.29264569 -0.03133091
-0.01383936 0.31216639 -0.04465152
0.001484728 0.2899943 -0.03133091
0.01641541 0.269905 -0.019445719
0.030973401 0.25178891 -0.0090286033
0.045179389 0.23553631 -0.0001122478
0.059054092 0.2210377 0.0072706812
0.072618209 0.2081835 0.01308751
0.085892446 0.1968639 0.01730557
0.098897517 0.1869694 0.019892201
0.1116541 0.1783904 0.020814709
0.124183 0.1710172 0.020040439
0.1365048 0.1647402 0.017536709
0.1486402 0.15944991 0.01327087
0.16061001 0.15503649 0.0072102239
0.1724349 0.1513904 -0.00067788467
0.1841355 0.14840209 -0.01042613
0.19573259 0.1459619 -0.02206718
0.2072469 0.14396019 -0.03563372
0.21869899 0.1422874 -0.051158398
0.2301098 0.1408338 -0.068673909
0.2414998 0.1394898 -0.0882129
-0.22307441 0.2123284 -0.086531259
-0.2113039 0.2109037 -0.06717708
-0.1995602 0.209591 -0.049827948
-0.1878698 0.20850229 -0.0344522
-0.1762595 0.20774969 -0.02101814
-0.164756 0.2074451 -0.0094941081
-0.1533858 0.2077007 0.0001515796
-0.14217579 0.2086284 0.0079505974
-0.1311526 0.2103402 0.01393462
-0.1203428 0.2129481 0.01813533
-0.1097733 0.2165643 0.02058439
-0.099470563 0.2213006 0.02131349
-0.089461401 0.2272691 0.020354301
-0.079772472 0.2345819 0.017738489
-0.070430458 0.24335089 0.01349774
-0.06146206 0.25368819 0.007663738
-0.05289394 0.2657057 0.00026814599
-0.044752799 0.27951559 -0.0086573558
-0.03706532 0.29522979 -0.01908109
-0.029858179 0.3129603 -0.030971389
-0.023158081 0.33281919 -0.044296559
-0.0063084252 0.31007349 -0.030971389
0.0100342 0.28945619 -0.01908109
0.025896469 0.27085519 -0.0086573558
0.041305091 0.2541585 0.00026814599
0.05628673 0.23925421 0.007663738
0.070868067 0.2260301 0.01349774
0.085075833 0.2143743 0.017738489
0.098936647 0.2041747 0.020354301
0.1124773 0.1953194 0.02131349
0.1257243 0.18769629 0.02058439
0.13870449 0.1811934 0.01813533
0.15144449 0.17569859 0.01393462
0.1639711 0.17110001 0.0079505974
0.17631079 0.1672855 0.0001515796
0.18849041 0.1641432 -0.0094941081
0.20053659 0.16156089 -0.02101814
0.212476 0.1594267 -0.0344522
0.2243354 0.1576286 -0.049827948
0.2361414 0.1560545 -0.06717708
0.24792071 0.1545925 -0.086531259
-0.2315442 0.2333979 -0.084394537
-0.2194306 0.23184749 -0.065326929
-0.2073497 0.2304108 -0.048235372
-0.19533449 0.22920141 -0.033089321
-0.1834176 0.228333 -0.01985826
-0.1716321 0.2279191 -0.008511642
-0.1600105 0.2280736 0.00098105823
-0.14858571 0.22891 0.0086503746
-0.1373906 0.2305419 0.01452684
-0.1264579 0.23308299 0.018640989
-0.1158204 0.23664699 0.021023359
-0.105511 0.2413476 0.021704471
-0.09556248 0.2472983 0.02071487
-0.08600758 0.2546128 0.018085079
-0.076879144 0.26340491 0.01384564
-0.068209954 0.27378809 0.0080270814
-0.06003283 0.28587601 0.00065993681
-0.052380592 0.2997824 -0.0082252612
-0.045286018 0.3156209 -0.018597979
-0.03878193 0.33350521 -0.030427679
-0.032901119 0.35354879 -0.043683842
-0.01454369 0.33036661 -0.030427679
0.003190448 0.30934381 -0.018597979
0.02033411 0.29036671 -0.0082252612
0.0369201 0.27332169 0.00065993681
0.052981209 0.25809509 0.0080270814
0.068550259 0.2445734 0.01384564
0.083660051 0.2326428 0.018085079
0.09834338 0.22218961 0.02071487
0.1126331 0.2131003 0.021704471
0.1265619 0.2052612 0.021023359
0.14016271 0.1985586 0.018640989
0.15346821 0.1928789 0.01452684
0.1665113 0.1881084 0.0086503746
0.17932481 0.1841334 0.00098105823
0.1919414 0.1808404 -0.008511642
0.2043941 0.17811561 -0.01985826
0.2167155 0.1758455 -0.033089321
0.22893851 0.1739163 -0.048235372
0.2410959 0.1722144 -0.065326929
0.25322041 0.17062619 -0.084394537
-0.2393485 0.25572589 -0.081857443
-0.2269363 0.25404179 -0.063168786
-0.2145631 0.25247219 -0.046417579
-0.2022679 0.25113159 -0.03157454
-0.1900897 0.25013459 -0.01861041
-0.17806751 0.2495956 -0.0074959178
-0.1662403 0.2496292 0.001798206
-0.1546471 0.25034991 0.0093012303
-0.14332689 0.25187209 0.01504242
-0.13231871 0.25431049 0.01905106
-0.1216614 0.25777939 0.0213564
-0.1113942 0.2623935 0.021987719
-0.1015559 0.2682673 0.02097428
-0.092185661 0.27551511 0.01834536
-0.083322383 0.28425169 0.01413022
-0.075005099 0.2945914 0.0083581349
-0.067272797 0.30664879 0.001058372
-0.060164481 0.3205384 -0.0077398
-0.053719152 0.33637479 -0.018007111
-0.047975801 0.35427231 -0.029714299
-0.04297344 0.3743456 -0.04283208
-0.023138409 0.3508659 -0.029714299
-0.0040443712 0.32956201 -0.018007111
0.01434769 0.3103193 -0.0077398
0.032076761 0.29302329 0.001058372
0.049181849 0.27755949 0.0083581349
0.065701947 0.26381341 0.01413022
0.081676073 0.25167051 0.01834536
0.097143188 0.2410163 0.02097428
0.1121423 0.2317362 0.021987719
0.1267125 0.22371569 0.0213564
0.1408926 0.2168404 0.01905106
0.1547218 0.2109956 0.01504242
0.168239 0.206067 0.0093012303
0.1814831 0.20194 0.001798206
0.19449329 0.19850001 -0.0074959178
0.2073085 0.19563261 -0.01861041
0.21996769 0.1932233 -0.03157454
0.2325099 0.1911575 -0.046417579
0.24497411 0.1893207 -0.063168786
0.25739929 0.18759841 -0.081857443
-0.2464622 0.2792995 -0.078972422
-0.2337966 0.2774739 -0.06074601
-0.2211763 0.27576289 -0.044409771
-0.2086464 0.27428111 -0.02993579
-0.19625209 0.27314311 -0.01729616
-0.18403859 0.27246341 -0.0064629759
-0.17205121 0.27235681 0.0025916749
-0.16033509 0.27293769 0.0098957028
-0.14893541 0.27432081 0.01547701
-0.1378974 0.27662069 0.019363521
-0.1272663 0.2799519 0.021583131
-0.1170873 0.28442901 0.02216376
-0.1074056 0.2901668 0.0211333
-0.098266363 0.29727969 0.018519679
-0.089714877 0.3058823 0.0143508
-0.081796341 0.31608921 0.0086545693
-0.074555948 0.32801509 0.001458899
-0.068038903 0.34177461 -0.0072083031
-0.06229043 0.35748211 -0.01731913
-0.057355721 0.3752524 -0.02884566
-0.05328 0.39520001 -0.041760001
-0.032009561 0.37156299 -0.02884566
-0.0115981 0.35010329 -0.01731913
0.0079995925 0.33070639 -0.0072083031
0.026828719 0.3132576 0.001458899
0.044934489 0.29764229 0.0086545693
0.06236212 0.283746 0.0143508
0.079156809 0.27145401 0.018519679
0.095363773 0.26065171 0.0211333
0.1110282 0.25122461 0.02216376
0.1261954 0.243058 0.021583131
0.1409104 0.2360374 0.019363521
0.1552186 0.23004819 0.01547701
0.1691651 0.22497571 0.0098957028
0.18279511 0.2207054 0.0025916749
0.1961538 0.2171227 -0.0064629759
0.2092866 0.214113 -0.01729616
0.2222385 0.21156161 -0.02993579
0.2350547 0.209354 -0.044409771
0.2477805 0.2073756 -0.06074601
0.26046109 0.2055119 -0.078972422
-0.25285971 0.30409339 -0.07578972
-0.2399864 0.30211911 -0.058100011
-0.22716451 0.30025879 -0.042245429
-0.2144454 0.2986263 -0.028199499
-0.2018804 0.29733539 -0.015935751
-0.1895209 0.2965003 -0.0054277042
-0.17741831 0.29623461 0.00335112
-0.1656239 0.29665241 0.0104272
-0.1541892 0.29786751 0.015827009
-0.1431655 0.29999381 0.01957703
-0.1326042 0.30314529 0.021703741
-0.1225567 0.3074359 0.022233609
-0.1130743 0.3129794 0.02119313
-0.1042084 0.31988969 0.01860876
-0.096010469 0.3282809 0.01450699
-0.088531777 0.3382667 0.0089143021
-0.081823774 0.34996101 0.001857163
-0.07593777 0.36347789 -0.0066379472
-0.070925191 0.37893111 -0.016544551
-0.066837393 0.39643469 -0.02783617
-0.063725762 0.41610241 -0.040486321
-0.041073728 0.39244819 -0.02783617
-0.01939786 0.37095821 -0.016544551
0.001353215 0.3515186 -0.0066379472
0.021230889 0.33401531 0.001857163
0.040286519 0.3183344 0.0089143021
0.05857151 0.30436221 0.01450699
0.076137207 0.29198459 0.01860876
0.093035012 0.28108779 0.02119313
0.1093163 0.2715579 0.022233609
0.1250324 0.2632809 0.021703741
0.1402348 0.256143 0.01957703
0.1549747 0.25003019 0.015827009
0.1693037 0.2448286 0.0104272
0.183273 0.24042439 0.00335112
0.1969341 0.2367036 -0.0054277042
0.21033821 0.2335524 -0.015935751
0.22353689 0.2308567 -0.028199499
0.2365814 0.2285028 -0.042245429
0.24952319 0.2263767 -0.058100011
0.26241359 0.2243645 -0.07578972
-0.25851509 0.33006999 -0.072357357
-0.24548019 0.3279407 -0.055270229
-0.23250259 0.32592389 -0.039956309
-0.2196399 0.324132 -0.026390599
-0.20694961 0.3226774 -0.01454811
-0.194489 0.32167271 -0.0044038421
-0.18231571 0.32123011 0.0040671928
-0.170487 0.3214623 0.01088999
-0.15906049 0.32248169 0.01608956
-0.14809351 0.3244006 0.019690881
-0.1376434 0.3273316 0.02171896
-0.12776791 0.3313871 0.022198791
-0.1185242 0.33667949 0.021155359
-0.1099698 0.34332129 0.01861367
-0.1021622 0.35142499 0.01459872
-0.095158823 0.361103 0.0091354987
-0.089017093 0.37246779 0.002249008
-0.083794467 0.38563171 -0.0060357591
-0.079548404 0.4007073 -0.01569381
-0.076336317 0.41780701 -0.026700141
-0.07421568 0.43704319 -0.039029758
-0.050247181 0.41351089 -0.026700141
-0.027370119 0.39211521 -0.01569381
-0.0055270442 0.37274361 -0.0060357591
0.01533948 0.35528359 0.002249008
0.0352869 0.33962291 0.0091354987
0.054372661 0.3256489 0.01459872
0.07265421 0.3132492 0.01861367
0.090188988 0.3023113 0.021155359
0.1070344 0.29272291 0.022198791
0.123248 0.28437141 0.02171896
0.13888711 0.2771444 0.019690881
0.1540093 0.2709294 0.01608956
0.1686718 0.26561409 0.01088999
0.1829323 0.26108581 0.0040671928
0.19684809 0.25723231 -0.0044038421
0.2104767 0.25394109 -0.01454811
0.22387549 0.25109959 -0.026390599
0.237102 0.24859551 -0.039956309
0.25021359 0.2463163 -0.055270229
0.2632677 0.2441496 -0.072357357
-0.26340249 0.3571797 -0.06872116
-0.25025201 0.35488999 -0.052294169
-0.2371649 0.35271049 -0.03757244
-0.2242045 0.35075149 -0.024532489
-0.2114342 0.34912321 -0.01315083
-0.1989173 0.347936 -0.003403981
-0.18671709 0.3472999 0.0047315462
-0.1748971 0.34732541 0.01127923
-0.1635206 0.3481226 0.016262559
-0.15265089 0.34980169 0.01970502
-0.1423513 0.35247311 0.02163009
-0.13268539 0.35624689 0.02206126
-0.1237163 0.36123341 0.021022011
-0.1155075 0.36754289 0.018535821
-0.1081223 0.3752856 0.01462618
-0.1016241 0.3845717 0.0093165683
-0.096076153 0.3955116 0.0026304771
-0.091541886 0.40821531 -0.005408613
-0.088084683 0.4227933 -0.01477722
-0.085767828 0.4393557 -0.025451859
-0.084654719 0.45801279 -0.037409041
-0.059445791 0.4347395 -0.025451859
-0.03544059 0.4135609 -0.01477722
-0.01257578 0.39436671 -0.005408613
0.0092120087 0.3770467 0.0026304771
0.029986121 0.3614907 0.0093165683
0.049809929 0.34758839 0.01462618
0.06874676 0.33522949 0.018535821
0.086859994 0.32430381 0.021022011
0.104213 0.31470099 0.02206126
0.120869 0.30631101 0.02163009
0.1368916 0.29902339 0.01970502
0.1523439 0.2927281 0.016262559
0.16728941 0.28731471 0.01127923
0.18179139 0.28267309 0.0047315462
0.1959133 0.2786929 -0.003403981
0.2097185 0.27526399 -0.01315083
0.22327019 0.27227601 -0.024532489
0.2366318 0.26961881 -0.03757244
0.24986669 0.26718211 -0.052294169
0.26303831 0.26485559 -0.06872116
-0.2674951 0.38536039 -0.064924687
-0.25427559 0.3829059 -0.049207371
-0.2411252 0.38055879 -0.03512216
-0.22811291 0.37842619 -0.0226471
-0.2153078 0.3766157 -0.01176022
-0.2027788 0.3752344 -0.0024395641
-0.19059519 0.37438959 0.0053368281
-0.1788259 0.37418881 0.01159092
-0.16753989 0.3747392 0.01634467
-0.15680639 0.3761481 0.01962004
-0.14669441 0.3785229 0.021438999
-0.13727289 0.38197079 0.021823499
-0.128611 0.38659921 0.020795509
-0.1207778 0.39251539 0.01837698
-0.1138422 0.39982671 0.01458988
-0.1078735 0.40864041 0.0094561707
-0.1029405 0.4190639 0.002997813
-0.099112399 0.4312045 -0.0047632321
-0.096458219 0.44516939 -0.013805
-0.095047012 0.46106601 -0.02410554
-0.094947837 0.47900161 -0.035642881
-0.068585083 0.4561213 -0.02410554
-0.043534338 0.43528 -0.013805
-0.01972658 0.41637039 -0.0047632321
0.002907261 0.39928511 0.002997813
0.024436239 0.38391691 0.0094561707
0.0449294 0.37015849 0.01458988
0.0644558 0.3579025 0.01837698
0.083084501 0.34704149 0.020795509
0.1008846 0.33746839 0.021823499
0.117925 0.32907581 0.021438999
0.1342749 0.32175639 0.01962004
0.1500034 0.31540269 0.01634467
0.1651793 0.30990759 0.01159092
0.17987201 0.30516371 0.0053368281
0.1941503 0.30106381 -0.0024395641
0.2080833 0.2975004 -0.01176022
0.2217401 0.29436621 -0.0226471
0.23518971 0.291554 -0.03512216
0.2485013 0.28895649 -0.049207371
0.26174369 0.28646621 -0.064924687
-0.27076611 0.41453779 -0.06100931
-0.25752419 0.41191569 -0.0460434
-0.2443568 0.40939721 -0.032632049
-0.2313384 0.4070861 -0.02075481
-0.2185434 0.4050861 -0.01039124
-0.2060464 0.4035008 -0.0015208829
-0.19392189 0.40243399 0.005876692
-0.1822443 0.40198931 0.01182193
-0.1710882 0.40227041 0.01633529
-0.1605279 0.40338099 0.01943719
-0.1506381 0.40542489 0.0211481
-0.1414931 0.40850559 0.02148846
-0.13316759 0.41272679 0.020478699
-0.12573589 0.4181923 0.01813928
-0.1192726 0.42500579 0.01449063
-0.1138522 0.4332709 0.0095532117
-0.1095491 0.4430913 0.0033474569
-0.1064378 0.4545708 -0.0041061859
-0.1045929 0.4678129 -0.01278727
-0.1040888 0.48292139 -0.02267536
-0.105 0.5 -0.033750001
-0.077580199 0.47764251 -0.02267536
-0.051575702 0.45725521 -0.01278727
-0.02691203 0.4387342 -0.0041061859
-0.0035146789 0.42197591 0.0033474569
0.01869083 0.40687659 0.0095532117
0.039778989 0.3933326 0.01449063
0.059824292 0.38124031 0.01813928
0.078901216 0.37049589 0.020478699
0.097084269 0.3609958 0.02148846
0.1144479 0.35263619 0.0211481
0.13106669 0.34531361 0.01943719
0.14701509 0.33892411 0.01633529
0.16236749 0.3333641 0.01182193
0.1771985 0.32853001 0.005876692
0.1915825 0.3243179 -0.0015208829
0.2055942 0.32062429 -0.01039124
0.2193078 0.3173455 -0.02075481
0.232798 0.3143777 -0.032632049
0.2461392 0.31161731 -0.0460434
0.25940591 0.30896059 -0.06100931
-0.27318829 0.4446255 -0.057014171
-0.25997061 0.44183421 -0.042833891
-0.2468325 0.43914241 -0.030126991
-0.2338537 0.43664929 -0.01887452
-0.22111361 0.4344545 -0.0090575358
-0.208692 0.43265721 -0.00065708312
-0.19666851 0.43135691 0.0063457852
-0.18512259 0.43065301 0.01197002
-0.174134 0.43064481 0.01623456
-0.1637823 0.43143189 0.019158371
-0.154147 0.43311349 0.020760391
-0.1453079 0.43578911 0.02105956
-0.13734449 0.439558 0.02007485
-0.1303364 0.4445197 0.01782519
-0.1243633 0.4507736 0.01432954
-0.1195046 0.458419 0.009606842
-0.1158402 0.4675554 0.003676048
-0.1134495 0.47828209 -0.003443894
-0.1124122 0.49069861 -0.01173404
-0.1128079 0.50490421 -0.021175429
-0.1147162 0.52099842 -0.031749122
-0.086345941 0.49928859 -0.021175429
-0.059488319 0.47946739 -0.01173404
-0.034063689 0.46143529 -0.003443894
-0.0099924374 0.44509289 0.003676048
0.01280505 0.43034089 0.009606842
0.034408379 0.41707981 0.01432954
0.054897171 0.40521029 0.01782519
0.07435102 0.394633 0.02007485
0.092849553 0.38524839 0.02105956
0.1104724 0.37695721 0.020760391
0.1272991 0.3696599 0.019158371
0.1434093 0.36325729 0.01623456
0.1588826 0.3576498 0.01197002
0.1737987 0.35273811 0.0063457852
0.1882371 0.34842271 -0.00065708312
0.20227741 0.3446044 -0.0090575358
0.21599931 0.3411836 -0.01887452
0.2294824 0.338061 -0.030126991
0.2428062 0.33513731 -0.042833891
0.2560505 0.33231291 -0.057014171
-0.27473429 0.47552469 -0.05297618
-0.26158729 0.47256461 -0.03960849
-0.2485247 0.46969911 -0.02763013
-0.2356309 0.46702251 -0.017023619
-0.2229901 0.46462929 -0.0077714529
-0.2106868 0.46261409 0.0001438414
-0.1988053 0.46107131 0.006739757
-0.18742999 0.46009541 0.01203378
-0.17664529 0.4597809 0.0160434
-0.1665355 0.4602223 0.01878611
-0.157185 0.461514 0.020279391
-0.1486782 0.4637506 0.020540729
-0.1410993 0.46702641 0.019587619
-0.1345329 0.47143611 0.017437549
-0.1290632 0.47707409 0.014108
-0.1247746 0.4840349 0.0096164616
-0.1217515 0.49241289 0.0039804252
-0.1200783 0.50230259 -0.002782624
-0.1198392 0.51379859 -0.0106552
-0.1211188 0.5269953 -0.0196198
-0.1240013 0.54198718 -0.02965896
-0.094796747 0.52104372 -0.0196198
-0.067195147 0.50189543 -0.0106552
-0.041112151 0.48444781 -0.002782624
-0.016463351 0.4686065 0.0039804252
0.0068355929 0.45427689 0.0096164616
0.028869061 0.4413645 0.014108
0.049721401 0.42977491 0.017437549
0.069476992 0.4194136 0.019587619
0.088220201 0.41018611 0.020540729
0.1060354 0.40199801 0.020279391
0.1230069 0.39475459 0.01878611
0.13921911 0.38836169 0.0160434
0.1547565 0.38272461 0.01203378
0.1697032 0.37774879 0.006739757
0.1841438 0.37334001 0.0001438414
0.1981625 0.36940369 -0.0077714529
0.2118438 0.3658452 -0.017023619
0.225272 0.3625702 -0.02763013
0.2385314 0.3594842 -0.03960849
0.25170651 0.35649261 -0.05297618
-0.27537599 0.50712442 -0.048930049
-0.26234621 0.50399768 -0.036394909
-0.2494051 0.50096011 -0.025162909
-0.2366415 0.4981004 -0.01521797
-0.22414391 0.49550769 -0.0065440061
-0.2120012 0.49327111 0.00087504397
-0.200302 0.49147931 0.007055257
-0.1891351 0.49022159 0.01201271
-0.17858911 0.48958689 0.015763471
-0.1687527 0.48966411 0.018323621
-0.1597148 0.49054229 0.01970922
-0.1515639 0.4923104 0.01993636
-0.14438871 0.49505749 0.019021111
-0.1382781 0.49887261 0.01697953
-0.1333206 0.50384468 0.01382771
-0.129605 0.51006258 0.0095817167
-0.12722 0.51761562 0.0042576259
-0.12625439 0.52659249 -0.0021284891
-0.12679669 0.53708231 -0.0095605543
-0.1289358 0.54917407 -0.0180225
-0.1327603 0.56295681 -0.02749824
-0.1028467 0.54289109 -0.0180225
-0.074618451 0.52451628 -0.0095605543
-0.047986951 0.50774348 -0.0021284891
-0.02286347 0.49248359 0.0042576259
0.00084070029 0.47864771 0.0095817167
0.023214269 0.46614671 0.01382771
0.044345949 0.45489171 0.01697953
0.064324431 0.44479361 0.019021111
0.083238438 0.43576351 0.01993636
0.1011767 0.42771241 0.01970922
0.1182278 0.42055121 0.018323621
0.1344806 0.41419089 0.015763471
0.1500238 0.40854269 0.01201271
0.164946 0.40351751 0.007055257
0.17933591 0.39902619 0.00087504397
0.1932824 0.39497989 -0.0065440061
0.206874 0.39128959 -0.01521797
0.22019941 0.38786629 -0.025162909
0.23334751 0.3846209 -0.036394909
0.2464069 0.3814646 -0.048930049
-0.27508539 0.53930151 -0.044908259
-0.26221901 0.53601247 -0.033218909
-0.2494451 0.53280652 -0.022745039
-0.23685651 0.52976638 -0.01347194
-0.2245456 0.52697539 -0.0053848922
-0.2126051 0.52451628 0.001530827
-0.2011275 0.5224722 0.0072899321
-0.1902054 0.52092588 0.01190714
-0.17993151 0.5199607 0.01539716
-0.17039821 0.51965928 0.017774731
-0.16169821 0.52010483 0.01905454
-0.15392409 0.52138031 0.019251321
-0.1471685 0.52356857 0.0183798
-0.1415239 0.52675283 0.016454671
-0.1370829 0.53101581 0.01349067
-0.1339381 0.53644067 0.0095024994
-0.1321822 0.54311049 0.004504886
-0.1319077 0.551108 -0.001487455
-0.1332071 0.56051642 -0.0084598074
-0.1361731 0.57141858 -0.01639745
-0.1408982 0.58389759 -0.02528568
-0.1104094 0.56481302 -0.01639745
-0.081679761 0.54730523 -0.0084598074
-0.054616671 0.53129113 -0.001487455
-0.029127549 0.51668793 0.004504886
-0.005119835 0.50341249 0.0095024994
0.01749908 0.491382 0.01349067
0.038821772 0.48051339 0.016454671
0.058940832 0.4707236 0.0183798
0.077948838 0.46192959 0.019251321
0.095938392 0.45404851 0.01905454
0.1130021 0.4469974 0.017774731
0.1292325 0.44069311 0.01539716
0.14472219 0.43505281 0.01190714
0.15956379 0.42999339 0.0072899321
0.17384981 0.42543191 0.001530827
0.187673 0.4212853 -0.0053848922
0.2011258 0.41747081 -0.01347194
0.2143008 0.41390511 -0.022745039
0.2272906 0.4105055 -0.033218909
0.2401879 0.4071888 -0.044908259
-0.27383369 0.57192028 -0.04094106
-0.26117659 0.56847548 -0.030104261
-0.2486155 0.56510729 -0.020394521
-0.2362463 0.56189221 -0.0117984
-0.2241649 0.55890661 -0.004302491
-0.21246751 0.55622703 0.002106644
-0.20124979 0.5539301 0.0074424292
-0.19060791 0.55209237 0.01171829
-0.1806377 0.55079031 0.01494765
-0.17143521 0.55010033 0.017143929
-0.1630964 0.55009907 0.01832057
-0.1557171 0.55086303 0.018490991
-0.1493935 0.55246878 0.01766861
-0.14422131 0.55499268 0.015866861
-0.1402967 0.55851161 0.01309916
-0.1377155 0.56310159 0.0093789492
-0.1365737 0.56883961 0.004719642
-0.1369673 0.57580179 -0.00086533162
-0.13899229 0.58406502 -0.0073625469
-0.1427445 0.59370548 -0.01475858
-0.14832 0.60479999 -0.02304
-0.1173983 0.58679062 -0.01475858
-0.088299938 0.57023501 -0.0073625469
-0.060928829 0.55505693 -0.00086533162
-0.03518907 0.5411796 0.004719642
-0.01098467 0.52852672 0.0093789492
0.01178031 0.51702172 0.01309916
0.033201829 0.50658792 0.015866861
0.053375859 0.4971489 0.01766861
0.072398357 0.48862821 0.018490991
0.090365291 0.48094931 0.01832057
0.1073726 0.4740355 0.017143929
0.1235163 0.46781051 0.01494765
0.13889229 0.4621976 0.01171829
0.15359651 0.45712039 0.0074424292
0.167725 0.45250231 0.002106644
0.1813737 0.4482668 -0.004302491
0.19463859 0.44433749 -0.0117984
0.20761549 0.44063759 -0.020394521
0.2204005 0.4370909 -0.030104261
0.2330896 0.43362069 -0.04094106
-0.2715922 0.60483319 -0.037056498
-0.2591899 0.60124171 -0.02707281
-0.24688651 0.59772003 -0.018127611
-0.23478059 0.59433752 -0.0102087
-0.2229711 0.59116399 -0.003303868
-0.2115567 0.58826917 0.0025990941
-0.20063619 0.58572263 0.0075123929
-0.1903085 0.58359408 0.01144824
-0.1806722 0.58195323 0.01441883
-0.1718262 0.5808695 0.016436379
-0.16386931 0.58041292 0.0175131
-0.1569002 0.58065277 0.017661201
-0.1510177 0.58165902 0.016892871
-0.1463206 0.58350122 0.01522033
-0.1429078 0.58624899 0.01265579
-0.1408779 0.58997202 0.0092114545
-0.1403297 0.59473997 0.0048995279
-0.14136221 0.60062248 -0.00026777989
-0.1440739 0.60768938 -0.006278262
-0.1485638 0.61601013 -0.01311971
-0.15493061 0.6256544 -0.020779921
-0.1237264 0.60880399 -0.01311971
-0.094399139 0.5932771 -0.006278262
-0.066849999 0.57900423 -0.00026777989
-0.04098019 0.56591552 0.0048995279
-0.016690919 0.55394143 0.0092114545
0.0061165821 0.5430122 0.01265579
0.027541099 0.53305829 0.01522033
0.047681428 0.52401 0.016892871
0.066636346 0.51579762 0.017661201
0.084504642 0.50835162 0.0175131
0.1013851 0.50160211 0.016436379
0.1173765 0.49547961 0.01441883
0.1325776 0.48991439 0.01144824
0.1470872 0.48483679 0.0075123929
0.1610041 0.48017719 0.0025990941
0.1744272 0.4758659 -0.003303868
0.187455 0.4718332 -0.0102087
0.20018651 0.46800959 -0.018127611
0.2127205 0.46432519 -0.02707281
0.22515561 0.46071059 -0.037056498
-0.2683315 0.63788021 -0.033280391
-0.25622931 0.63415372 -0.02414443
-0.24422801 0.63048971 -0.015958879
-0.2324287 0.62695068 -0.0087126782
-0.2209325 0.62359911 -0.0023947661
-0.2098404 0.62049741 0.0030059279
-0.19925331 0.61770809 0.0075004711
-0.1892724 0.6152938 0.01109993
-0.1799985 0.61331677 0.01381537
-0.17153271 0.61183971 0.01565787
-0.1639761 0.61092478 0.01663848
-0.15742961 0.61063492 0.016768269
-0.1519942 0.61103219 0.01605832
-0.14777111 0.61217928 0.01451969
-0.1448611 0.6141386 0.01216344
-0.14336529 0.61697268 0.0090006478
-0.1433847 0.62074399 0.005042376
-0.1450204 0.62551498 0.0002996923
-0.14837331 0.63134831 -0.0052163359
-0.1535445 0.63830608 -0.01149464
-0.16063491 0.64645118 -0.018524161
-0.1293062 0.63083237 -0.01149464
-0.099896833 0.61640072 -0.0052163359
-0.072305687 0.60309368 0.0002996923
-0.046431798 0.59084892 0.005042376
-0.02217414 0.57960379 0.0090006478
0.00056831143 0.56929588 0.01216344
0.02189656 0.55986267 0.01451969
0.041911621 0.55124187 0.01605832
0.060714521 0.54337078 0.016768269
0.078406252 0.53618699 0.01663848
0.095087849 0.52962798 0.01565787
0.1108603 0.52363127 0.01381537
0.1258247 0.51813447 0.01109993
0.1400819 0.51307511 0.0075004711
0.1537331 0.50839061 0.0030059279
0.16687921 0.50401843 -0.0023947661
0.1796212 0.49989629 -0.0087126782
0.1920602 0.49596149 -0.015958879
0.2042972 0.49215171 -0.02414443
0.21643309 0.48840439 -0.033280391
-0.2640222 0.67088908 -0.02963634
-0.25226441 0.66704208 -0.02133703
-0.2406092 0.66325021 -0.01390114
-0.2291593 0.65956843 -0.0073186709
-0.21801721 0.65605187 -0.001579613
-0.20728549 0.6527555 0.003326043
-0.1970669 0.64973438 0.007408306
-0.18746389 0.64704382 0.01067718
-0.1785792 0.6447385 0.01314269
-0.1705154 0.6428737 0.01481482
-0.16337509 0.64150453 0.0157036
-0.15726081 0.64068592 0.01581903
-0.15227529 0.64047289 0.01517111
-0.1485211 0.6409207 0.01376987
-0.1461008 0.6420843 0.0116253
-0.1451171 0.64401871 0.008747411
-0.1456725 0.64677912 0.005146218
-0.14786971 0.65042043 0.00083172892
-0.1518113 0.65499771 -0.00418605
-0.15759981 0.66056621 -0.0098971091
-0.16533791 0.66718078 -0.01629144
-0.13405 0.65285391 -0.0098971091
-0.1047118 0.63957322 -0.00418605
-0.077220447 0.62728351 0.00083172892
-0.05147351 0.61592978 0.005146218
-0.027368341 0.60545719 0.008747411
-0.0048023099 0.59581047 0.0116253
0.01632718 0.58693463 0.01376987
0.036122739 0.57877457 0.01517111
0.054686971 0.57127517 0.01581903
0.072122499 0.56438148 0.0157036
0.088531934 0.55803847 0.01481482
0.1040179 0.55219102 0.01314269
0.1186829 0.54678392 0.01067718
0.13262969 0.54176229 0.007408306
0.1459609 0.53707099 0.003326043
0.15877891 0.53265512 -0.001579613
0.1711866 0.52845943 -0.0073186709
0.1832864 0.5244289 -0.01390114
0.195181 0.52050853 -0.02133703
0.2069729 0.51664323 -0.02963634
-0.25863421 0.70367539 -0.026145721
-0.24726491 0.69972563 -0.018666569
-0.23599911 0.69582319 -0.01196552
-0.2249403 0.69201571 -0.0060335058
-0.2141922 0.68835068 -0.00086151622
-0.2038582 0.68487573 0.00355949
-0.1940418 0.68163812 0.007238545
-0.18484659 0.67868543 0.01018468
-0.17637619 0.67606509 0.01240694
-0.168734 0.67382473 0.01391435
-0.1620236 0.67201167 0.01471594
-0.1563485 0.67067349 0.01482075
-0.1518122 0.66985768 0.01423782
-0.1485184 0.66961169 0.01297617
-0.1465704 0.66998303 0.01104484
-0.1460719 0.67101908 0.008452869
-0.14712641 0.67276752 0.0052092862
-0.1498373 0.67527562 0.001323125
-0.15430839 0.67859107 -0.003196578
-0.160643 0.68276119 -0.0083407918
-0.1689446 0.68783361 -0.01410048
-0.13786981 0.67484558 -0.0083407918
-0.108762 0.66275978 -0.003196578
-0.081517793 0.65152878 0.001323125
-0.05603363 0.64110512 0.0052092862
-0.03220598 0.63144112 0.008452869
-0.0099313017 0.62248927 0.01104484
0.01089393 0.61420238 0.01297617
0.030373249 0.60653287 0.01423782
0.048610199 0.59943312 0.01482075
0.065708287 0.59285557 0.01471594
0.081771061 0.58675307 0.01391435
0.09690205 0.58107787 0.01240694
0.1112048 0.57578248 0.01018468
0.1247828 0.57081968 0.007238545
0.1377396 0.56614172 0.00355949
0.1501788 0.56170112 -0.00086151622
0.1622038 0.55745041 -0.0060335058
0.17391831 0.55334228 -0.01196552
0.1854257 0.54932898 -0.018666569
0.1968295 0.54536343 -0.026145721
-0.2521373 0.7360425 -0.02282769
-0.2411997 0.73201048 -0.01614707
-0.2303658 0.72801828 -0.01016139
-0.2197393 0.72410589 -0.004862505
-0.20942409 0.72031301 -0.0002422676
-0.1995239 0.71667939 0.003707462
-0.1901423 0.71324509 0.006994829
-0.18138321 0.71004993 0.0096279746
-0.1733503 0.70713371 0.01161504
-0.16614731 0.70453608 0.01296418
-0.159878 0.70229727 0.01368352
-0.1546461 0.70045692 0.01378122
-0.1505554 0.6990549 0.01326541
-0.1477095 0.69813102 0.01214424
-0.14621229 0.69772512 0.01042586
-0.1461675 0.69787723 0.0081183976
-0.14767881 0.69862688 0.0052300082
-0.15085 0.70001417 0.001768829
-0.1557847 0.70207888 -0.0022569939
-0.16258679 0.70486093 -0.0068393182
-0.17136 0.70840001 -0.01197
-0.1406769 0.6967836 -0.0068393182
-0.1119649 0.68592429 -0.0022569939
-0.085120238 0.67578232 0.001768829
-0.060039181 0.66631758 0.0052300082
-0.036617979 0.65749061 0.0081183976
-0.0147529 0.6492613 0.01042586
0.005659807 0.64158982 0.01214424
0.024723871 0.63443643 0.01326541
0.042543039 0.62776113 0.01378122
0.059221059 0.62152421 0.01368352
0.074861661 0.61568582 0.01296418
0.089568593 0.61020589 0.01161504
0.1034456 0.6050449 0.0096279746
0.1165964 0.6001628 0.006994829
0.12912481 0.59551978 0.003707462
0.1411344 0.59107602 -0.0002422676
0.15272909 0.58679157 -0.004862505
0.1640126 0.58262682 -0.01016139
0.1750886 0.57854158 -0.01614707
0.1860608 0.57449639 -0.02282769
-0.24450099 0.76778132 -0.01969918
-0.2340375 0.76369143 -0.01379056
-0.2236771 0.75963372 -0.0084964391
-0.21352319 0.75564051 -0.003809477
-0.20367891 0.75174409 0.00027766029
-0.19424739 0.7479766 0.0037723079
-0.1853319 0.74437028 0.0066818008
-0.1770356 0.74095762 0.0090134749
-0.1694617 0.73777062 0.01077466
-0.16271339 0.73484153 0.01197271
-0.156894 0.73220259 0.01261494
-0.15210649 0.72988629 0.01270869
-0.14845429 0.72792459 0.01226129
-0.1460405 0.72634989 0.0112801
-0.14496841 0.72519439 0.0097724264
-0.1453411 0.72449028 0.0077456199
-0.1472618 0.72426999 0.0052070119
-0.1508337 0.72456563 0.0021639389
-0.1561601 0.72540933 -0.001376264
-0.1633441 0.72683352 -0.0054062619
-0.172489 0.72887039 -0.0099187205
-0.14238261 0.71864289 -0.0054062619
-0.1142371 0.70902812 -0.001376264
-0.087949291 0.69999373 0.0021639389
-0.063415878 0.69150752 0.0052070119
-0.040533692 0.6835373 0.0077456199
-0.019199541 0.67605072 0.0097724264
0.00068978808 0.66901559 0.0112801
0.01923749 0.66239971 0.01226129
0.036546759 0.65617079 0.01270869
0.052720811 0.65029663 0.01261494
0.067862853 0.64474481 0.01197271
0.082076058 0.63948321 0.01077466
0.095463648 0.63447958 0.0090134749
0.1081288 0.62970179 0.0066818008
0.1201748 0.62511742 0.0037723079
0.13170481 0.62069428 0.00027766029
0.14282189 0.61640012 -0.003809477
0.1536295 0.6122027 -0.0084964391
0.1642306 0.60806978 -0.01379056
0.1747285 0.6039691 -0.01969918
-0.2356942 0.79867071 -0.01677491
-0.22574639 0.79455072 -0.01160713
-0.2159005 0.7904554 -0.0069766068
-0.2062583 0.78640968 -0.0028767281
-0.19692171 0.7824384 0.00069911272
-0.18799271 0.77856618 0.003757521
-0.179573 0.77481788 0.0063051041
-0.1717647 0.77121842 0.0083484687
-0.1646695 0.76779228 0.009894223
-0.1583893 0.76456457 0.01094897
-0.153026 0.76156002 0.01151933
-0.14868151 0.75880313 0.01161189
-0.1454577 0.75631899 0.01123327
-0.1434564 0.75413221 0.01039008
-0.1427795 0.75226772 0.0090889223
-0.143529 0.75075018 0.0073364018
-0.1458066 0.74960452 0.0051391278
-0.14971431 0.74885541 0.0025037071
-0.1553539 0.74852753 -0.00056325231
-0.1628273 0.7486459 -0.0040551438
-0.1722365 0.74923521 -0.0079653598
-0.1428977 0.74039757 -0.0040551438
-0.1154947 0.73203081 -0.00056325231
-0.089925461 0.72411019 0.0025037071
-0.06608817 0.71661109 0.0051391278
-0.043880939 0.70950842 0.0073364018
-0.023201879 0.70277762 0.0090889223
-0.0039491369 0.69639373 0.01039008
0.01397919 0.69033211 0.01123327
0.03068497 0.68456793 0.01161189
0.04627008 0.67907637 0.01151933
0.060836408 0.67383271 0.01094897
0.074485824 0.66881222 0.009894223
0.087320223 0.66398978 0.0083484687
0.099441446 0.65934098 0.0063051041
0.1109514 0.65484089 0.003757521
0.121952 0.65046471 0.00069911272
0.13254499 0.64618772 -0.0028767281
0.1428325 0.64198512 -0.0069766068
0.1529161 0.63783193 -0.01160713
0.1628979 0.63370359 -0.01677491
-0.2256857 0.8284772 -0.01406738
-0.2162943 0.82435858 -0.009604916
-0.2070026 0.82025772 -0.0056061242
-0.19791029 0.81619179 -0.002065052
-0.1891173 0.81217867 0.001024253
-0.18072321 0.80823588 0.003667745
-0.1728278 0.80438107 0.0058713779
-0.1655308 0.80063158 0.0076411068
-0.158932 0.79700518 0.0089828847
-0.1531311 0.7935195 0.0099026673
-0.1482278 0.79019189 0.01040641
-0.1443219 0.78704017 0.01050006
-0.14151309 0.78408182 0.01018957
-0.13990121 0.78133428 0.0094809104
-0.1395859 0.77881533 0.008380021
-0.1406669 0.77654248 0.006892859
-0.14324389 0.77453327 0.0050253789
-0.1474168 0.77280527 0.002783535
-0.15328521 0.77137631 0.0001732814
-0.1609488 0.77026349 -0.0027994281
-0.17050751 0.76948482 -0.0061286399
-0.1421327 0.76202053 -0.0027994281
-0.1156528 0.75489032 0.0001732814
-0.090968236 0.74807638 0.002783535
-0.067979209 0.74156129 0.0050253789
-0.046585981 0.73532748 0.006892859
-0.02668881 0.72935742 0.008380021
-0.0081879767 0.72363329 0.0094809104
0.0090162707 0.7181378 0.01018957
0.025023671 0.71285331 0.01050006
0.03993395 0.707762 0.01040641
0.053846851 0.70284659 0.0099026673
0.066862121 0.69808942 0.0089828847
0.079079486 0.69347268 0.0076411068
0.090598688 0.68897909 0.0058713779
0.1015195 0.68459111 0.003667745
0.1119415 0.68029088 0.001024253
0.1219647 0.67606097 -0.002065052
0.13168859 0.67188382 -0.0056061242
0.1412131 0.66774178 -0.009604916
0.15063781 0.66361737 -0.01406738
-0.21444391 0.85695511 -0.01158686
-0.20564841 0.85287362 -0.0077900821
-0.19694971 0.8488028 -0.004387496
-0.1884445 0.84475362 -0.0013737381
-0.1802294 0.84073639 0.001256561
-0.1724014 0.83676243 0.0035087729
-0.16505709 0.83284187 0.005388265
-0.15829331 0.82898599 0.0069004088
-0.1522067 0.82520521 0.0080505731
-0.1468941 0.82151031 0.0088441269
-0.1424522 0.81791222 0.0092864418
-0.1389778 0.81442142 0.0093828859
-0.13656759 0.81104869 0.00913883
-0.13531829 0.80780488 0.0085596424
-0.1353268 0.80470079 0.0076506939
-0.13668969 0.80174702 0.0064173541
-0.1395037 0.79895443 0.0048649921
-0.14386579 0.79633361 0.0029989779
-0.1498725 0.7938953 0.0008246816
-0.1576207 0.79165041 -0.0016525279
-0.167207 0.78960961 -0.0044272798
-0.1399975 0.7834838 -0.0016525279
-0.1146261 0.77756208 0.0008246816
-0.090996116 0.77183372 0.0029989779
-0.069010846 0.76628792 0.0048649921
-0.048573531 0.76091403 0.0064173541
-0.02958741 0.75570112 0.0076506939
-0.01195573 0.75063872 0.0085596424
0.004418232 0.7457158 0.00913883
0.019631241 0.74092191 0.0093828859
0.033780031 0.73624599 0.0092864418
0.046961371 0.73167759 0.0088441269
0.05927198 0.72720581 0.0080505731
0.070808619 0.72281998 0.0069004088
0.081668027 0.71850938 0.005388265
0.091946967 0.71426308 0.0035087729
0.1017422 0.71007073 0.001256561
0.1111504 0.70592111 -0.0013737381
0.1202684 0.7018038 -0.004387496
0.1291928 0.69770801 -0.0077900821
0.1380206 0.69362289 -0.01158686
-0.2019368 0.88384652 -0.0093414132
-0.1937758 0.8798418 -0.006166846
-0.1857077 0.87584138 -0.0033215119
-0.1778253 0.87184989 -0.00080056611
-0.1702216 0.86787158 0.001400838
-0.1629893 0.86391079 0.0032875461
-0.1562214 0.85997212 0.0048644049
-0.15001079 0.85605967 0.00613626
-0.14445031 0.85217798 0.0071079568
-0.13963281 0.84833157 0.0077843429
-0.1356511 0.84452468 0.0081702629
-0.13259821 0.84076178 0.0082705636
-0.1305669 0.83704728 0.0080900919
-0.1296501 0.83338559 0.0076336921
-0.1299407 0.82978088 0.0069062109
-0.1315316 0.82623792 0.0059124948
-0.13451549 0.82276082 0.0046573901
-0.1389855 0.81935412 0.003145742
-0.1450343 0.8160221 0.001382397
-0.1527548 0.81276929 -0.00062779908
-0.16224 0.8096 -0.00288
-0.13640191 0.80475843 -0.00062779908
-0.1123284 0.80000031 0.001382397
-0.089926578 0.79532129 0.003145742
-0.069103673 0.79071712 0.0046573901
-0.04976676 0.7861833 0.0059124948
-0.031822961 0.78171539 0.0069062109
-0.01517941 0.77730912 0.0076336921
0.00025676479 0.77295989 0.0080900919
0.01457845 0.76866353 0.0082705636
0.02787851 0.7644155 0.0081702629
0.040249828 0.76021141 0.0077843429
0.051785279 0.75604701 0.0071079568
0.062577717 0.7519176 0.00613626
0.072720051 0.74781913 0.0048644049
0.082305133 0.74374688 0.0032875461
0.091425844 0.7396968 0.001400838
0.100175 0.73566419 -0.00080056611
0.1086456 0.73164481 -0.0033215119
0.1169305 0.72763419 -0.006166846
0.1251224 0.72362798 -0.0093414132
-0.18813211 0.90888119 -0.0073368629
-0.1806429 0.90499729 -0.0047374652
-0.17324179 0.9011122 -0.0024072379
-0.16601691 0.89722443 -0.00034180729
-0.15905631 0.8933326 0.001463199
-0.152448 0.88943553 0.0030121561
-0.1462802 0.88553178 0.0043094358
-0.1406409 0.88162023 0.0053594131
-0.1356183 0.87769938 0.0061664609
-0.13130049 0.87376797 0.0067349519
-0.1277754 0.86982459 0.0070692608
-0.1251314 0.86586809 0.0071737608
-0.1234563 0.86189699 0.0070528248
-0.1228383 0.8579101 0.0067108269
-0.1233655 0.85390598 0.0061521409
-0.125126 0.84988332 0.005381139
-0.128208 0.84584087 0.004402197
-0.1326994 0.84177732 0.003219686
-0.1386883 0.83769119 0.00183798
-0.146263 0.83358139 0.00026145391
-0.15551139 0.82944638 -0.00150552
-0.13125519 0.82581413 0.00026145391
-0.1086728 0.82215673 0.00183798
-0.087676093 0.81847548 0.003219686
-0.068176948 0.81477177 0.004402197
-0.050087281 0.81104702 0.005381139
-0.033319 0.80730242 0.0061521409
-0.017784011 0.80353922 0.0067108269
-0.0033942331 0.79975891 0.0070528248
0.0099384366 0.79596269 0.0071737608
0.022302089 0.79215199 0.0070692608
0.03378481 0.78832811 0.0067349519
0.04447471 0.78449219 0.0061664609
0.054459851 0.78064579 0.0053594131
0.063828357 0.77679008 0.0043094358
0.072668307 0.77292663 0.0030121561
0.081067793 0.76905638 0.001463199
0.089114897 0.76518089 -0.00034180729
0.096897744 0.76130152 -0.0024072379
0.1045044 0.75741929 -0.0047374652
0.112023 0.75353593 -0.0073368629
-0.17299721 0.93177682 -0.005576828
-0.1662159 0.92806238 -0.0035022399
-0.1595169 0.92434192 -0.001642019
-0.1529827 0.92060858 7.774086e-06
-0.1466956 0.91685659 0.001451081
-0.140738 0.9130795 0.0026918419
-0.1351922 0.909271 0.0037339979
-0.13014071 0.90542477 0.0045814901
-0.1256658 0.90153468 0.0052382578
-0.1218499 0.89759427 0.0057082432
-0.1187753 0.89359742 0.0059953849
-0.1165245 0.88953769 0.006103626
-0.1151797 0.885409 0.006036907
-0.1148235 0.8812049 0.0057991659
-0.115538 0.87691921 0.005394347
-0.1174058 0.87254548 0.0048263888
-0.1205092 0.86807781 0.0040992331
-0.1249305 0.86350948 0.0032168189
-0.13075221 0.85883451 0.0021830881
-0.13805661 0.85404652 0.001001982
-0.14692611 0.84913921 -0.00032255999
-0.1244665 0.8466199 0.001001982
-0.103572 0.84398133 0.0021830881
-0.084160149 0.84122968 0.0032168189
-0.066148683 0.8383714 0.0040992331
-0.049455158 0.83541262 0.0048263888
-0.03399723 0.83235967 0.005394347
-0.019692531 0.82921869 0.0057991659
-0.0064586662 0.82599628 0.006036907
0.0057867239 0.82269841 0.006103626
0.017126011 0.81933153 0.0059953849
0.02764158 0.81590182 0.0057082432
0.037415791 0.8124156 0.0052382578
0.046531022 0.80887908 0.0045814901
0.05506964 0.80529869 0.0037339979
0.063114017 0.80168068 0.0026918419
0.070746548 0.79803121 0.001451081
0.078049578 0.79435658 7.774086e-06
0.085105494 0.79066318 -0.001642019
0.091996647 0.78695732 -0.0035022399
0.09880545 0.78324503 -0.005576828
-0.156499 0.95223862 -0.0040627019
-0.1504603 0.9487471 -0.0024595121
-0.1444972 0.94524533 -0.0010214821
-0.13868541 0.94172293 0.0002549222
-0.13310079 0.93816942 0.001373236
-0.1278189 0.9345746 0.0023369931
-0.1229154 0.93092817 0.003149729
-0.1184661 0.92721969 0.0038149769
-0.1145466 0.92343903 0.0043362742
-0.1112326 0.91957557 0.0047171521
-0.1085998 0.91561931 0.0049611479
-0.1067239 0.91155958 0.0050717951
-0.1056806 0.9073863 0.005052628
-0.1055455 0.90308899 0.0049071829
-0.1063944 0.89865738 0.0046389932
-0.1083029 0.89408112 0.0042515928
-0.1113467 0.88934988 0.0037485179
-0.1156016 0.88445342 0.003133303
-0.1211431 0.8793813 0.0024094819
-0.12804709 0.87412322 0.001580589
-0.13638911 0.86866879 0.00065016001
-0.1159443 0.86714369 0.001580589
-0.096937552 0.86542231 0.0024094819
-0.079293199 0.86351502 0.003133303
-0.062935553 0.86143202 0.0037485179
-0.047788922 0.85918373 0.0042515928
-0.033777609 0.85678053 0.0046389932
-0.02082595 0.85423261 0.0049071829
-0.0088582356 0.8515504 0.005052628
0.0022012161 0.84874427 0.0050717951
0.01242809 0.84582442 0.0049611479
0.021898091 0.84280127 0.0047171521
0.030686891 0.8396852 0.0043362742
0.038870171 0.83648652 0.0038149769
0.046523642 0.83321542 0.003149729
0.053722981 0.82988238 0.0023369931
0.06054388 0.82649767 0.001373236
0.06706202 0.8230716 0.0002549222
0.073353097 0.81961459 -0.0010214821
0.079492792 0.8161369 -0.0024595121
0.085556813 0.81264889 -0.0040627019
-0.1386043 0.96995962 -0.0027936581
-0.1333414 0.96674931 -0.001605666
-0.1281464 0.96352571 -0.000539531
-0.1230875 0.96027541 0.00040788899
-0.1182327 0.95698512 0.0012397351
-0.1136498 0.95364147 0.001959146
-0.1094071 0.95023131 0.002569264
-0.1055725 0.94674098 0.0030732311
-0.1022139 0.94315761 0.003474185
-0.099399529 0.93946737 0.0037752681
-0.097197257 0.93565732 0.0039796201
-0.095675133 0.93171382 0.0040903832
-0.094901182 0.92762381 0.0041106958
